ply
format ascii 1.0
comment Created by Open3D
element vertex 1831
property float x
property float y
property float z
end_header
-5.36328 -2.10404 -1.58656
-5.35478 -2.12559 -1.58656
-5.3462 -2.14711 -1.58656
-5.33752 -2.16857 -1.58656
-5.32876 -2.19002 -1.58656
-5.31991 -2.21143 -1.58656
-5.31098 -2.23279 -1.58656
-5.30196 -2.25412 -1.58656
-5.29286 -2.27543 -1.58656
-5.28366 -2.29668 -1.58656
-5.27438 -2.31789 -1.58656
-5.26504 -2.33906 -1.58656
-5.25559 -2.36021 -1.58656
-5.24605 -2.38133 -1.58656
-5.23645 -2.4024 -1.58656
-5.22675 -2.42342 -1.58656
-5.21695 -2.44441 -1.58656
-5.20709 -2.46537 -1.58656
-5.19714 -2.48629 -1.58656
-5.1871 -2.50717 -1.58656
-5.17698 -2.52799 -1.58656
-5.16678 -2.54879 -1.58656
-5.15648 -2.56953 -1.58656
-5.14611 -2.59023 -1.58656
-5.13566 -2.6109 -1.58656
-5.12513 -2.63152 -1.58656
-5.1145 -2.65211 -1.58656
-5.1038 -2.67266 -1.58656
-5.09302 -2.69314 -1.58656
-5.08215 -2.71361 -1.58656
-5.0712 -2.734 -1.58656
-5.06017 -2.75437 -1.58656
-5.04905 -2.77471 -1.58656
-5.03786 -2.79496 -1.58656
-5.02657 -2.8152 -1.58656
-5.01522 -2.83539 -1.58656
-5.00379 -2.85551 -1.58656
-4.99226 -2.87561 -1.58656
-4.98066 -2.89564 -1.58656
-4.96898 -2.91564 -1.58656
-4.95723 -2.93561 -1.58656
-4.94538 -2.95553 -1.58656
-4.93347 -2.97537 -1.58656
-4.92146 -2.99518 -1.58656
-4.90937 -3.01494 -1.58656
-4.89722 -3.03463 -1.58656
-4.88499 -3.05432 -1.58656
-4.87267 -3.07393 -1.58656
-4.86027 -3.09348 -1.58656
-4.84779 -3.11299 -1.58656
-4.83524 -3.13246 -1.58656
-4.82261 -3.15188 -1.58656
-4.80991 -3.17123 -1.58656
-4.79712 -3.19055 -1.58656
-4.78426 -3.2098 -1.58656
-4.77131 -3.22902 -1.58656
-4.7583 -3.24816 -1.58656
-4.74519 -3.26725 -1.58656
-4.73202 -3.28631 -1.58656
-4.71878 -3.30529 -1.58656
-4.70544 -3.32424 -1.58656
-4.69204 -3.34314 -1.58656
-4.67857 -3.36197 -1.58656
-4.66502 -3.38076 -1.58656
-4.65139 -3.39947 -1.58656
-4.63769 -3.41816 -1.58656
-4.62392 -3.43676 -1.58656
-4.61006 -3.45531 -1.58656
-4.59613 -3.47383 -1.58656
-4.58213 -3.49227 -1.58656
-4.56806 -3.51066 -1.58656
-4.5539 -3.529 -1.58656
-4.53968 -3.54729 -1.58656
-4.52538 -3.56551 -1.58656
-4.51101 -3.58367 -1.58656
-4.49656 -3.60176 -1.58656
-4.48205 -3.6198 -1.58656
-4.46747 -3.63779 -1.58656
-4.4528 -3.65572 -1.58656
-4.43808 -3.67359 -1.58656
-4.42327 -3.69143 -1.58656
-4.40839 -3.70916 -1.58656
-4.39345 -3.72686 -1.58656
-4.37844 -3.74451 -1.58656
-4.36335 -3.76207 -1.58656
-4.34817 -3.77957 -1.58656
-4.33296 -3.79701 -1.58656
-4.31765 -3.81439 -1.58656
-4.30229 -3.83174 -1.58656
-4.28685 -3.849 -1.58656
-4.27135 -3.86621 -1.58656
-4.25577 -3.88336 -1.58656
-4.24012 -3.90041 -1.58656
-4.2244 -3.91742 -1.58656
-4.20862 -3.93437 -1.58656
-4.19278 -3.95127 -1.58656
-4.17686 -3.96809 -1.58656
-4.16088 -3.98486 -1.58656
-4.14482 -4.00154 -1.58656
-4.12871 -4.01818 -1.58656
-4.11251 -4.03475 -1.58656
-4.09626 -4.05123 -1.58656
-4.07995 -4.06766 -1.58656
-4.06356 -4.08402 -1.58656
-4.04711 -4.10035 -1.58656
-4.03059 -4.11658 -1.58656
-4.01401 -4.13275 -1.58656
-3.99736 -4.14887 -1.58656
-3.98065 -4.16486 -1.58656
-3.96388 -4.18084 -1.58656
-3.94704 -4.19674 -1.58656
-3.93015 -4.21258 -1.58656
-3.91317 -4.22834 -1.58656
-3.89615 -4.24404 -1.58656
-3.87906 -4.25967 -1.58656
-3.86191 -4.27525 -1.58656
-3.84468 -4.29072 -1.58656
-3.82741 -4.30613 -1.58656
-3.81007 -4.32148 -1.58656
-3.79267 -4.33678 -1.58656
-3.7752 -4.35199 -1.58656
-3.75768 -4.36715 -1.58656
-3.74008 -4.38221 -1.58656
-3.72244 -4.39719 -1.58656
-3.70474 -4.41213 -1.58656
-3.68696 -4.42697 -1.58656
-3.66913 -4.44176 -1.58656
-3.65126 -4.4565 -1.58656
-3.63331 -4.47111 -1.58656
-3.6153 -4.4857 -1.58656
-3.59725 -4.50018 -1.58656
-3.57912 -4.51461 -1.58656
-3.56095 -4.52896 -1.58656
-3.54271 -4.54324 -1.58656
-3.52442 -4.55746 -1.58656
-3.50607 -4.5716 -1.58656
-3.48767 -4.58564 -1.58656
-3.46921 -4.59961 -1.58656
-3.45068 -4.61353 -1.58656
-3.43211 -4.62736 -1.58656
-3.41348 -4.64111 -1.58656
-3.39479 -4.65482 -1.58656
-3.37606 -4.66842 -1.58656
-3.35726 -4.68195 -1.58656
-3.33841 -4.69539 -1.58656
-3.31951 -4.70879 -1.58656
-3.30056 -4.72209 -1.58656
-3.28154 -4.73531 -1.58656
-3.26248 -4.74848 -1.58656
-3.24337 -4.76156 -1.58656
-3.2242 -4.77457 -1.58656
-3.20499 -4.78746 -1.58656
-3.18571 -4.80031 -1.58656
-3.16639 -4.81309 -1.58656
-3.14702 -4.82578 -1.58656
-3.12759 -4.8384 -1.58656
-3.10812 -4.85094 -1.58656
-3.08859 -4.86338 -1.58656
-3.06901 -4.87574 -1.58656
-3.04939 -4.88805 -1.58656
-3.02972 -4.90027 -1.58656
-3.01 -4.91242 -1.58656
-2.99022 -4.92449 -1.58656
-2.9704 -4.93645 -1.58656
-2.95053 -4.94836 -1.58656
-2.93062 -4.96016 -1.58656
-2.91064 -4.97191 -1.58656
-2.89064 -4.98357 -1.58656
-2.87058 -4.99516 -1.58656
-2.85048 -5.00666 -1.58656
-2.83033 -5.01809 -1.58656
-2.81014 -5.02941 -1.58656
-2.7899 -5.04066 -1.58656
-2.76961 -5.05184 -1.58656
-2.74928 -5.06295 -1.58656
-2.7289 -5.07395 -1.58656
-2.70849 -5.08488 -1.58656
-2.68802 -5.09572 -1.58656
-2.66752 -5.10648 -1.58656
-2.64697 -5.11717 -1.58656
-2.62637 -5.12777 -1.58656
-2.60574 -5.1383 -1.58656
-2.58506 -5.14873 -1.58656
-2.56435 -5.15906 -1.58656
-2.54358 -5.16934 -1.58656
-2.52278 -5.17953 -1.58656
-2.50193 -5.18963 -1.58656
-2.48105 -5.19965 -1.58656
-2.46014 -5.20957 -1.58656
-2.43917 -5.21939 -1.58656
-2.41817 -5.22918 -1.58656
-2.39714 -5.23887 -1.58656
-2.37604 -5.24846 -1.58656
-2.35493 -5.25797 -1.58656
-2.33378 -5.26738 -1.58656
-2.31259 -5.27672 -1.58656
-2.29136 -5.28598 -1.58656
-2.2701 -5.29516 -1.58656
-2.24879 -5.30424 -1.58656
-2.22744 -5.31322 -1.58656
-2.20606 -5.32215 -1.58656
-2.19421 -5.35426 -1.5935
-2.16321 -5.33971 -1.58656
-2.14173 -5.34836 -1.58656
-2.12021 -5.35693 -1.58656
-2.09866 -5.36541 -1.58656
-2.07708 -5.37381 -1.58656
-2.05545 -5.38209 -1.58656
-2.0338 -5.39031 -1.58656
-2.01211 -5.39844 -1.58656
-1.99442 -5.41742 -1.58977
-1.99069 -5.47508 -1.60433
-1.98687 -5.53379 -1.61917
-1.983 -5.59355 -1.63432
-1.98241 -5.6641 -1.65259
-1.98241 -5.73795 -1.67179
-1.98044 -5.80781 -1.68981
-1.95708 -5.8157 -1.68981
-1.93367 -5.82355 -1.68981
-1.91024 -5.83125 -1.68981
-1.88679 -5.83889 -1.68981
-1.8633 -5.84643 -1.68981
-1.83979 -5.85387 -1.68981
-1.81624 -5.86123 -1.68981
-1.79267 -5.86848 -1.68981
-1.76907 -5.87562 -1.68981
-1.74544 -5.8827 -1.68981
-1.72176 -5.88967 -1.68981
-1.69808 -5.89654 -1.68981
-1.67436 -5.9033 -1.68981
-1.65062 -5.90998 -1.68981
-1.62685 -5.91658 -1.68981
-1.60305 -5.92307 -1.68981
-1.57923 -5.92947 -1.68981
-1.55538 -5.93578 -1.68981
-1.5315 -5.94197 -1.68981
-1.50762 -5.94809 -1.68981
-1.48368 -5.9541 -1.68981
-1.45973 -5.96002 -1.68981
-1.43576 -5.96584 -1.68981
-1.41177 -5.97154 -1.68981
-1.38775 -5.97719 -1.68981
-1.36371 -5.98271 -1.68981
-1.33965 -5.98816 -1.68981
-1.31557 -5.9935 -1.68981
-1.29146 -5.99873 -1.68981
-1.26733 -6.00387 -1.68981
-1.2432 -6.00891 -1.68981
-1.21903 -6.01387 -1.68981
-1.19484 -6.01873 -1.68981
-1.17063 -6.02348 -1.68981
-1.14642 -6.02812 -1.68981
-1.12217 -6.03268 -1.68981
-1.09791 -6.03715 -1.68981
-1.07363 -6.04152 -1.68981
-1.04934 -6.0458 -1.68981
-1.02503 -6.04994 -1.68981
-1.0007 -6.05402 -1.68981
-0.976357 -6.05799 -1.68981
-0.951992 -6.06187 -1.68981
-0.927617 -6.06566 -1.68981
-0.903232 -6.06932 -1.68981
-0.878828 -6.07291 -1.68981
-0.854404 -6.07639 -1.68981
-0.829961 -6.07978 -1.68981
-0.805518 -6.08307 -1.68981
-0.781064 -6.08627 -1.68981
-0.756582 -6.08934 -1.68981
-0.7321 -6.09234 -1.68981
-0.707607 -6.09523 -1.68981
-0.683096 -6.09803 -1.68981
-0.658574 -6.10074 -1.68981
-0.634043 -6.1033 -1.68981
-0.609502 -6.10582 -1.68981
-0.584961 -6.10822 -1.68981
-0.5604 -6.11053 -1.68981
-0.53582 -6.11273 -1.68981
-0.51125 -6.11482 -1.68981
-0.48667 -6.11684 -1.68981
-0.46207 -6.11875 -1.68981
-0.437471 -6.12055 -1.68981
-0.412861 -6.12227 -1.68981
-0.388252 -6.12387 -1.68981
-0.363633 -6.12539 -1.68981
-0.339004 -6.1268 -1.68981
-0.314375 -6.12811 -1.68981
-0.289736 -6.12934 -1.68981
-0.265098 -6.13045 -1.68981
-0.240449 -6.13145 -1.68981
-0.215801 -6.13238 -1.68981
-0.191143 -6.13318 -1.68981
-0.166484 -6.13391 -1.68981
-0.141826 -6.13453 -1.68981
-0.117168 -6.13506 -1.68981
-0.0925098 -6.13547 -1.68981
-0.0678418 -6.1358 -1.68981
-0.0431738 -6.13602 -1.68981
-0.0185059 -6.13615 -1.68981
0.00616211 -6.13617 -1.68981
0.0308301 -6.13609 -1.68981
0.055498 -6.13592 -1.68981
0.0801563 -6.13566 -1.68981
0.104814 -6.13527 -1.68981
0.129482 -6.13479 -1.68981
0.15415 -6.13424 -1.68981
0.178799 -6.13355 -1.68981
0.203467 -6.13279 -1.68981
0.228115 -6.13193 -1.68981
0.252764 -6.13094 -1.68981
0.277412 -6.1299 -1.68981
0.302041 -6.12873 -1.68981
0.32668 -6.12746 -1.68981
0.351309 -6.12609 -1.68981
0.375928 -6.12465 -1.68981
0.400547 -6.12307 -1.68981
0.425166 -6.12143 -1.68981
0.449766 -6.11967 -1.68981
0.474365 -6.11781 -1.68981
0.498955 -6.11586 -1.68981
0.523535 -6.11379 -1.68981
0.548105 -6.11164 -1.68981
0.572666 -6.10939 -1.68981
0.597227 -6.10703 -1.68981
0.621768 -6.10459 -1.68981
0.646309 -6.10203 -1.68981
0.67083 -6.09937 -1.68981
0.695352 -6.09664 -1.68981
0.719854 -6.09379 -1.68981
0.744346 -6.09086 -1.68981
0.768818 -6.08781 -1.68981
0.793281 -6.08467 -1.68981
0.817744 -6.08145 -1.68981
0.842168 -6.07811 -1.68981
0.866602 -6.07467 -1.68981
0.891016 -6.07111 -1.68981
0.91541 -6.0675 -1.68981
0.939795 -6.06377 -1.68981
0.96416 -6.05994 -1.68981
0.988516 -6.05604 -1.68981
1.01285 -6.05201 -1.68981
1.03718 -6.04787 -1.68981
1.06148 -6.04365 -1.68981
1.08577 -6.03934 -1.68981
1.11004 -6.03494 -1.68981
1.1343 -6.03043 -1.68981
1.15853 -6.0258 -1.68981
1.18273 -6.02109 -1.68981
1.20693 -6.01631 -1.68981
1.2311 -6.01141 -1.68981
1.25525 -6.00641 -1.68981
1.27939 -6.00129 -1.68981
1.30351 -5.99611 -1.68981
1.3276 -5.99082 -1.68981
1.35168 -5.98545 -1.68981
1.37572 -5.97996 -1.68981
1.39976 -5.97439 -1.68981
1.42377 -5.96869 -1.68981
1.44774 -5.96293 -1.68981
1.47171 -5.95707 -1.68981
1.49564 -5.95111 -1.68981
1.51954 -5.94506 -1.68981
1.54343 -5.93889 -1.68981
1.56729 -5.93262 -1.68981
1.59113 -5.92629 -1.68981
1.61494 -5.91984 -1.68981
1.63873 -5.9133 -1.68981
1.66249 -5.90666 -1.68981
1.68621 -5.89994 -1.68981
1.70992 -5.89313 -1.68981
1.73359 -5.88619 -1.68981
1.75724 -5.87918 -1.68981
1.78086 -5.87205 -1.68981
1.80445 -5.86484 -1.68981
1.82802 -5.85756 -1.68981
1.85154 -5.85016 -1.68981
1.87505 -5.84266 -1.68981
1.89853 -5.8351 -1.68981
1.92196 -5.8274 -1.68981
1.94537 -5.81963 -1.68981
1.96874 -5.81176 -1.68981
1.99208 -5.80383 -1.68981
2.01541 -5.79574 -1.68981
2.03869 -5.7876 -1.68981
2.06194 -5.77936 -1.68981
2.08516 -5.77102 -1.68981
2.10835 -5.7626 -1.68981
2.13148 -5.75408 -1.68981
2.15461 -5.74547 -1.68981
2.17768 -5.73674 -1.68981
2.20073 -5.72795 -1.68981
2.22373 -5.71904 -1.68981
2.24671 -5.71006 -1.68981
2.26965 -5.701 -1.68981
2.29253 -5.69184 -1.68981
2.31539 -5.68254 -1.68981
2.33822 -5.6732 -1.68981
2.36102 -5.66375 -1.68981
2.38376 -5.65422 -1.68981
2.40647 -5.64461 -1.68981
2.42915 -5.63486 -1.68981
2.45178 -5.62506 -1.68981
2.47438 -5.61516 -1.68981
2.49692 -5.60516 -1.68981
2.51943 -5.59508 -1.68981
2.5419 -5.58494 -1.68981
2.56434 -5.57465 -1.68981
2.58672 -5.5643 -1.68981
2.60906 -5.55387 -1.68981
2.63138 -5.54332 -1.68981
2.65364 -5.5327 -1.68981
2.67586 -5.52199 -1.68981
2.69805 -5.51117 -1.68981
2.72016 -5.50029 -1.68981
2.74226 -5.48932 -1.68981
2.7643 -5.47824 -1.68981
2.7863 -5.46709 -1.68981
2.80825 -5.45584 -1.68981
2.83017 -5.44449 -1.68981
2.85202 -5.43309 -1.68981
2.87385 -5.42158 -1.68981
2.89562 -5.41 -1.68981
2.91734 -5.39832 -1.68981
2.93902 -5.38654 -1.68981
2.96065 -5.37467 -1.68981
2.98223 -5.36273 -1.68981
3.00376 -5.3507 -1.68981
3.02525 -5.33857 -1.68981
3.0467 -5.32637 -1.68981
3.06808 -5.3141 -1.68981
3.08941 -5.3017 -1.68981
3.1107 -5.28926 -1.68981
3.13193 -5.2767 -1.68981
3.15313 -5.26406 -1.68981
3.17426 -5.25135 -1.68981
3.19534 -5.23855 -1.68981
3.21638 -5.22564 -1.68981
3.23735 -5.21268 -1.68981
3.25829 -5.19963 -1.68981
3.27917 -5.1865 -1.68981
3.29999 -5.17326 -1.68981
3.32076 -5.15996 -1.68981
3.34147 -5.14656 -1.68981
3.36214 -5.13309 -1.68981
3.38275 -5.11953 -1.68981
3.40329 -5.1059 -1.68981
3.4238 -5.09219 -1.68981
3.44424 -5.07838 -1.68981
3.46463 -5.06447 -1.68981
3.48495 -5.05049 -1.68981
3.50521 -5.03646 -1.68981
3.52545 -5.02232 -1.68981
3.54561 -5.00811 -1.68981
3.56571 -4.99385 -1.68981
3.58575 -4.97943 -1.68981
3.60574 -4.96498 -1.68981
3.62567 -4.95045 -1.68981
3.64554 -4.93586 -1.68981
3.66535 -4.92115 -1.68981
3.68511 -4.90639 -1.68981
3.70479 -4.89154 -1.68981
3.72443 -4.87658 -1.68981
3.74401 -4.86156 -1.68981
3.76352 -4.84648 -1.68981
3.78298 -4.83131 -1.68981
3.80237 -4.81607 -1.68981
3.8217 -4.80076 -1.68981
3.84097 -4.78533 -1.68981
3.86017 -4.76986 -1.68981
3.87931 -4.7543 -1.68981
3.8984 -4.73867 -1.68981
3.91741 -4.72297 -1.68981
3.93636 -4.70719 -1.68981
3.95526 -4.69133 -1.68981
3.97408 -4.67537 -1.68981
3.99283 -4.65936 -1.68981
4.01154 -4.64328 -1.68981
4.03018 -4.62713 -1.68981
4.04875 -4.61088 -1.68981
4.06725 -4.59457 -1.68981
4.08569 -4.57818 -1.68981
4.10406 -4.56172 -1.68981
4.12237 -4.54516 -1.68981
4.14061 -4.52857 -1.68981
4.15877 -4.51189 -1.68981
4.17688 -4.49512 -1.68981
4.19491 -4.47832 -1.68981
4.21288 -4.46141 -1.68981
4.23077 -4.44443 -1.68981
4.24861 -4.42738 -1.68981
4.26637 -4.41029 -1.68981
4.28406 -4.39309 -1.68981
4.30169 -4.37584 -1.68981
4.31926 -4.35852 -1.68981
4.33673 -4.34111 -1.68981
4.35415 -4.32363 -1.68981
4.37149 -4.30609 -1.68981
4.38878 -4.28848 -1.68981
4.40598 -4.27082 -1.68981
4.42311 -4.25307 -1.68981
4.44018 -4.23525 -1.68981
4.45716 -4.21738 -1.68981
4.47407 -4.19943 -1.68981
4.49093 -4.18141 -1.68981
4.50771 -4.16332 -1.68981
4.52439 -4.14518 -1.68981
4.54102 -4.12693 -1.68981
4.55758 -4.10865 -1.68981
4.57405 -4.09029 -1.68981
4.59046 -4.07188 -1.68981
4.60679 -4.0534 -1.68981
4.62306 -4.03484 -1.68981
4.63923 -4.01621 -1.68981
4.65534 -3.99754 -1.68981
4.67138 -3.97879 -1.68981
4.68733 -3.95998 -1.68981
4.70321 -3.94109 -1.68981
4.71902 -3.92217 -1.68981
4.73475 -3.90318 -1.68981
4.75039 -3.88408 -1.68981
4.76597 -3.86498 -1.68981
4.78147 -3.84578 -1.68981
4.79688 -3.82652 -1.68981
4.81224 -3.80721 -1.68981
4.82751 -3.78783 -1.68981
4.84269 -3.76842 -1.68981
4.85779 -3.74893 -1.68981
4.87283 -3.72934 -1.68981
4.88778 -3.70973 -1.68981
4.90266 -3.69004 -1.68981
4.91745 -3.67031 -1.68981
4.93217 -3.65051 -1.68981
4.9468 -3.63066 -1.68981
4.96135 -3.61074 -1.68981
4.97583 -3.59078 -1.68981
4.99022 -3.57074 -1.68981
5.00454 -3.55064 -1.68981
5.01877 -3.53049 -1.68981
5.03292 -3.51029 -1.68981
5.04699 -3.49004 -1.68981
5.06098 -3.46973 -1.68981
5.07489 -3.44936 -1.68981
5.08871 -3.42893 -1.68981
5.10246 -3.40844 -1.68981
5.11612 -3.38791 -1.68981
5.12969 -3.36729 -1.68981
5.14319 -3.34666 -1.68981
5.1566 -3.32596 -1.68981
5.16992 -3.3052 -1.68981
5.18317 -3.28437 -1.68981
5.19633 -3.26354 -1.68981
5.20941 -3.24262 -1.68981
5.2224 -3.22164 -1.68981
5.23531 -3.20062 -1.68981
5.24813 -3.17955 -1.68981
5.26088 -3.15842 -1.68981
5.27354 -3.13725 -1.68981
5.28609 -3.11603 -1.68981
5.29858 -3.09477 -1.68981
5.31099 -3.07342 -1.68981
5.32329 -3.05205 -1.68981
5.33552 -3.03064 -1.68981
5.34766 -3.00916 -1.68981
5.35971 -2.98764 -1.68981
5.37168 -2.96607 -1.68981
5.38356 -2.94443 -1.68981
5.39535 -2.92277 -1.68981
5.40706 -2.90105 -1.68981
5.41868 -2.8793 -1.68981
5.43021 -2.8575 -1.68981
5.44165 -2.83564 -1.68981
5.45301 -2.81375 -1.68981
5.46427 -2.79182 -1.68981
5.47546 -2.76982 -1.68981
5.48655 -2.74779 -1.68981
5.49754 -2.7257 -1.68981
5.50846 -2.70357 -1.68981
5.51929 -2.68143 -1.68981
5.53002 -2.6592 -1.68981
5.54066 -2.63695 -1.68981
5.55121 -2.61467 -1.68981
5.56168 -2.59232 -1.68981
5.57206 -2.56996 -1.68981
5.58234 -2.54754 -1.68981
5.59254 -2.52506 -1.68981
5.60265 -2.50256 -1.68981
5.61266 -2.48004 -1.68981
5.62259 -2.45744 -1.68981
5.63242 -2.43482 -1.68981
5.64216 -2.41215 -1.68981
5.65182 -2.38945 -1.68981
5.66138 -2.36672 -1.68981
5.67084 -2.34395 -1.68981
5.68021 -2.32113 -1.68981
5.68951 -2.29826 -1.68981
5.69869 -2.27539 -1.68981
5.7078 -2.25246 -1.68981
5.7168 -2.22949 -1.68981
5.72571 -2.20648 -1.68981
5.73455 -2.18346 -1.68981
5.74327 -2.16039 -1.68981
5.75191 -2.13728 -1.68981
5.76046 -2.11416 -1.68981
5.76891 -2.09096 -1.68981
5.77727 -2.06775 -1.68981
5.78554 -2.04451 -1.68981
5.7937 -2.02123 -1.68981
5.80179 -1.99795 -1.68981
5.80978 -1.97459 -1.68981
5.81766 -1.95123 -1.68981
5.82546 -1.92783 -1.68981
5.83315 -1.90439 -1.68981
5.84077 -1.88094 -1.68981
5.84828 -1.85744 -1.68981
5.8557 -1.83393 -1.68981
5.86303 -1.81037 -1.68981
5.87025 -1.7868 -1.68981
5.87738 -1.76316 -1.68981
5.88442 -1.73953 -1.68981
5.89138 -1.71584 -1.68981
5.89822 -1.69215 -1.68981
5.90498 -1.66844 -1.68981
5.91164 -1.64467 -1.68981
5.9182 -1.6209 -1.68981
5.92468 -1.59711 -1.68981
5.93104 -1.57326 -1.68981
5.93732 -1.54941 -1.68981
5.94351 -1.52553 -1.68981
5.94958 -1.50164 -1.68981
5.95558 -1.4777 -1.68981
5.96146 -1.45373 -1.68981
5.96727 -1.42977 -1.68981
5.97296 -1.40578 -1.68981
5.97856 -1.38176 -1.68981
5.98407 -1.35771 -1.68981
5.98948 -1.33363 -1.68981
5.99479 -1.30955 -1.68981
6.00001 -1.28545 -1.68981
6.00513 -1.26131 -1.68981
6.01015 -1.23717 -1.68981
6.01508 -1.21299 -1.68981
6.0199 -1.18879 -1.68981
6.02464 -1.16459 -1.68981
6.02926 -1.14035 -1.68981
6.0338 -1.11611 -1.68981
6.03824 -1.09186 -1.68981
6.04258 -1.06756 -1.68981
6.04683 -1.04326 -1.68981
6.05098 -1.01895 -1.68981
6.05501 -0.994609 -1.68981
6.05896 -0.970254 -1.68981
6.06279 -0.945918 -1.68981
6.06279 -0.920957 -1.68876
6.06279 -0.896016 -1.68774
6.06278 -0.871152 -1.68675
6.06278 -0.846269 -1.68579
6.06278 -0.821426 -1.68486
6.06277 -0.796621 -1.68396
6.06277 -0.771855 -1.68308
6.06276 -0.74709 -1.68223
6.06276 -0.722363 -1.68141
6.06276 -0.697676 -1.68062
6.06275 -0.672988 -1.67985
6.06275 -0.64832 -1.67912
6.06274 -0.623672 -1.67841
6.06274 -0.599063 -1.67773
6.06274 -0.574453 -1.67707
6.06273 -0.549883 -1.67645
6.06273 -0.525312 -1.67585
6.06272 -0.500762 -1.67528
6.06272 -0.476211 -1.67473
6.06272 -0.451719 -1.67422
6.06271 -0.427207 -1.67373
6.06271 -0.402734 -1.67327
6.06271 -0.378262 -1.67283
6.06271 -0.353789 -1.67243
6.06271 -0.329355 -1.67205
6.0627 -0.304902 -1.67169
6.0627 -0.280488 -1.67137
6.0627 -0.256074 -1.67107
6.06269 -0.23166 -1.6708
6.06269 -0.207246 -1.67055
6.06269 -0.182852 -1.67034
6.06268 -0.158457 -1.67015
6.06268 -0.134082 -1.66999
6.06267 -0.109687 -1.66985
6.06267 -0.0853125 -1.66974
6.06267 -0.0609375 -1.66966
6.06266 -0.0365625 -1.6696
6.06266 -0.0121875 -1.66958
6.06266 0.0121875 -1.66957
6.06265 0.0365625 -1.6696
6.06265 0.060918 -1.66965
6.06264 0.0853125 -1.66973
6.06264 0.109687 -1.66984
6.06264 0.134062 -1.66997
6.06263 0.158457 -1.67014
6.06263 0.182832 -1.67032
6.06262 0.207246 -1.67054
6.06262 0.231641 -1.67078
6.06262 0.256035 -1.67105
6.06261 0.280469 -1.67135
6.06261 0.304902 -1.67167
6.06261 0.329336 -1.67202
6.0626 0.35377 -1.6724
6.0626 0.378242 -1.6728
6.06259 0.402715 -1.67323
6.06259 0.427207 -1.67369
6.06259 0.451699 -1.67418
6.06258 0.476211 -1.67469
6.06258 0.500742 -1.67524
6.06258 0.525293 -1.6758
6.06257 0.549844 -1.6764
6.06257 0.574434 -1.67702
6.06256 0.599043 -1.67768
6.06256 0.623652 -1.67836
6.06256 0.648301 -1.67906
6.06255 0.672949 -1.6798
6.06255 0.697637 -1.68056
6.06254 0.722324 -1.68135
6.06254 0.74707 -1.68217
6.06254 0.771816 -1.68301
6.06253 0.796602 -1.68389
6.06253 0.821406 -1.68479
6.06253 0.84623 -1.68572
6.06252 0.871094 -1.68668
6.06252 0.895977 -1.68767
6.06251 0.920918 -1.68868
6.06251 0.945859 -1.68973
6.05896 0.970234 -1.68981
6.05501 0.994609 -1.68981
6.05097 1.01895 -1.68981
6.04682 1.04326 -1.68981
6.04258 1.06756 -1.68981
6.03824 1.09184 -1.68981
6.03379 1.11611 -1.68981
6.02926 1.14035 -1.68981
6.02463 1.16459 -1.68981
6.01989 1.18879 -1.68981
6.01507 1.21297 -1.68981
6.01015 1.23715 -1.68981
6.00512 1.26129 -1.68981
6.00001 1.28541 -1.68981
5.99478 1.30953 -1.68981
5.98948 1.33363 -1.68981
5.98407 1.3577 -1.68981
5.97856 1.38172 -1.68981
5.97297 1.40576 -1.68981
5.96726 1.42975 -1.68981
5.96146 1.45373 -1.68981
5.95558 1.47768 -1.68981
5.94959 1.50162 -1.68981
5.9435 1.52553 -1.68981
5.93732 1.54941 -1.68981
5.93104 1.57326 -1.68981
5.92468 1.59711 -1.68981
5.9182 1.6209 -1.68981
5.91164 1.64467 -1.68981
5.90499 1.66844 -1.68981
5.89822 1.69215 -1.68981
5.89138 1.71584 -1.68981
5.88443 1.73949 -1.68981
5.87738 1.76314 -1.68981
5.87025 1.78674 -1.68981
5.86302 1.81033 -1.68981
5.85569 1.83389 -1.68981
5.84828 1.85742 -1.68981
5.84076 1.8809 -1.68981
5.83315 1.90437 -1.68981
5.82546 1.92781 -1.68981
5.81766 1.95121 -1.68981
5.80977 1.97459 -1.68981
5.80179 1.99793 -1.68981
5.7937 2.02125 -1.68981
5.78554 2.04451 -1.68981
5.77727 2.06775 -1.68981
5.76891 2.09098 -1.68981
5.76046 2.11412 -1.68981
5.7519 2.13727 -1.68981
5.74327 2.16037 -1.68981
5.73454 2.18344 -1.68981
5.72571 2.20646 -1.68981
5.71681 2.22947 -1.68981
5.70779 2.25244 -1.68981
5.69869 2.27537 -1.68981
5.6895 2.29826 -1.68981
5.68021 2.32111 -1.68981
5.67084 2.34395 -1.68981
5.66138 2.3667 -1.68981
5.65182 2.38945 -1.68981
5.64216 2.41215 -1.68981
5.63242 2.4348 -1.68981
5.62258 2.45742 -1.68981
5.61267 2.48002 -1.68981
5.60265 2.50256 -1.68981
5.59254 2.52506 -1.68981
5.58234 2.54752 -1.68981
5.57206 2.56994 -1.68981
5.56168 2.5923 -1.68981
5.55122 2.61467 -1.68981
5.54066 2.63693 -1.68981
5.53002 2.6592 -1.68981
5.51928 2.68141 -1.68981
5.50846 2.70357 -1.68981
5.49755 2.72568 -1.68981
5.48654 2.74777 -1.68981
5.47546 2.7698 -1.68981
5.46428 2.7918 -1.68981
5.45301 2.81373 -1.68981
5.44165 2.83564 -1.68981
5.4302 2.8575 -1.68981
5.41868 2.8793 -1.68981
5.40705 2.90105 -1.68981
5.39535 2.92277 -1.68981
5.38356 2.94443 -1.68981
5.37168 2.96604 -1.68981
5.35971 2.98762 -1.68981
5.34766 3.00912 -1.68981
5.33552 3.03062 -1.68981
5.32329 3.05205 -1.68981
5.31098 3.07342 -1.68981
5.29857 3.09475 -1.68981
5.28609 3.11602 -1.68981
5.27354 3.13725 -1.68981
5.26087 3.15842 -1.68981
5.24813 3.17953 -1.68981
5.23531 3.20061 -1.68981
5.2224 3.22162 -1.68981
5.2094 3.2426 -1.68981
5.19634 3.26352 -1.68981
5.18316 3.28437 -1.68981
5.16992 3.30518 -1.68981
5.1566 3.32594 -1.68981
5.14319 3.34664 -1.68981
5.12969 3.3673 -1.68981
5.11612 3.38787 -1.68981
5.10246 3.40842 -1.68981
5.08871 3.42891 -1.68981
5.07488 3.44934 -1.68981
5.06098 3.46971 -1.68981
5.04699 3.49002 -1.68981
5.03292 3.51029 -1.68981
5.01877 3.53049 -1.68981
5.00453 3.55064 -1.68981
4.99022 3.5707 -1.68981
4.97583 3.59074 -1.68981
4.96136 3.61074 -1.68981
4.94679 3.63064 -1.68981
4.93217 3.65051 -1.68981
4.91744 3.67029 -1.68981
4.90266 3.69004 -1.68981
4.88778 3.70973 -1.68981
4.87283 3.72934 -1.68981
4.85779 3.74887 -1.68981
4.84269 3.76838 -1.68981
4.82751 3.78783 -1.68981
4.81223 3.80719 -1.68981
4.79689 3.8265 -1.68981
4.78146 3.84576 -1.68981
4.76597 3.86498 -1.68981
4.7504 3.8841 -1.68981
4.73474 3.90314 -1.68981
4.71901 3.92215 -1.68981
4.7032 3.94109 -1.68981
4.68732 3.95996 -1.68981
4.67137 3.97877 -1.68981
4.65533 3.99754 -1.68981
4.63923 4.01621 -1.68981
4.62306 4.03484 -1.68981
4.60679 4.05338 -1.68981
4.59045 4.07186 -1.68981
4.57405 4.09027 -1.68981
4.55758 4.10861 -1.68981
4.54102 4.12693 -1.68981
4.52438 4.14516 -1.68981
4.5077 4.1633 -1.68981
4.49093 4.18141 -1.68981
4.47408 4.19939 -1.68981
4.45716 4.21734 -1.68981
4.44017 4.23523 -1.68981
4.42311 4.25305 -1.68981
4.40598 4.2708 -1.68981
4.38878 4.28848 -1.68981
4.3715 4.30609 -1.68981
4.35415 4.32363 -1.68981
4.33674 4.34107 -1.68981
4.31926 4.3585 -1.68981
4.30169 4.37584 -1.68981
4.28406 4.39309 -1.68981
4.26638 4.41027 -1.68981
4.24861 4.42738 -1.68981
4.23078 4.44443 -1.68981
4.21288 4.46141 -1.68981
4.19491 4.47828 -1.68981
4.17688 4.49512 -1.68981
4.15876 4.51187 -1.68981
4.1406 4.52855 -1.68981
4.12236 4.54516 -1.68981
4.10405 4.5617 -1.68981
4.08568 4.57814 -1.68981
4.06725 4.59455 -1.68981
4.04875 4.61086 -1.68981
4.03018 4.62709 -1.68981
4.01153 4.64326 -1.68981
3.99284 4.65936 -1.68981
3.97408 4.67537 -1.68981
3.95525 4.69129 -1.68981
3.93637 4.70715 -1.68981
3.9174 4.72297 -1.68981
3.8984 4.73865 -1.68981
3.87932 4.7543 -1.68981
3.86016 4.76984 -1.68981
3.84096 4.78535 -1.68981
3.8217 4.80074 -1.68981
3.80236 4.81605 -1.68981
3.78297 4.83131 -1.68981
3.76352 4.84646 -1.68981
3.744 4.86156 -1.68981
3.72443 4.87658 -1.68981
3.70479 4.8915 -1.68981
3.68511 4.90637 -1.68981
3.66535 4.92113 -1.68981
3.64555 4.93584 -1.68981
3.62567 4.95045 -1.68981
3.60574 4.965 -1.68981
3.58575 4.97943 -1.68981
3.56571 4.99381 -1.68981
3.54561 5.00811 -1.68981
3.52544 5.02232 -1.68981
3.50522 5.03645 -1.68981
3.48495 5.05051 -1.68981
3.46463 5.06447 -1.68981
3.44424 5.07834 -1.68981
3.42378 5.09215 -1.68981
3.4033 5.10588 -1.68981
3.38273 5.11953 -1.68981
3.36213 5.13309 -1.68981
3.34147 5.14656 -1.68981
3.32075 5.15992 -1.68981
3.29998 5.17324 -1.68981
3.27916 5.18646 -1.68981
3.2583 5.19961 -1.68981
3.23735 5.21268 -1.68981
3.21638 5.22564 -1.68981
3.19534 5.23852 -1.68981
3.17426 5.25133 -1.68981
3.15313 5.26404 -1.68981
3.13193 5.27668 -1.68981
3.11069 5.28924 -1.68981
3.08941 5.3017 -1.68981
3.06808 5.31406 -1.68981
3.04669 5.32635 -1.68981
3.02524 5.33855 -1.68981
3.00376 5.35066 -1.68981
2.98223 5.36271 -1.68981
2.96065 5.37467 -1.68981
2.93902 5.3865 -1.68981
2.91734 5.39828 -1.68981
2.89562 5.40996 -1.68981
2.87384 5.42156 -1.68981
2.85203 5.43309 -1.68981
2.83017 5.44451 -1.68981
2.80825 5.45582 -1.68981
2.78629 5.46707 -1.68981
2.7643 5.47822 -1.68981
2.74226 5.4893 -1.68981
2.72017 5.50029 -1.68981
2.69804 5.51117 -1.68981
2.67586 5.52195 -1.68981
2.65362 5.53268 -1.68981
2.63137 5.5433 -1.68981
2.60907 5.55385 -1.68981
2.58672 5.56428 -1.68981
2.56434 5.57465 -1.68981
2.5419 5.5849 -1.68981
2.51942 5.59508 -1.68981
2.49691 5.60516 -1.68981
2.47437 5.61516 -1.68981
2.45178 5.62506 -1.68981
2.42914 5.63486 -1.68981
2.40647 5.64457 -1.68981
2.38376 5.6542 -1.68981
2.36101 5.66375 -1.68981
2.33822 5.6732 -1.68981
2.3154 5.68254 -1.68981
2.29254 5.6918 -1.68981
2.26964 5.70098 -1.68981
2.24671 5.71006 -1.68981
2.22373 5.71904 -1.68981
2.20071 5.72793 -1.68981
2.17768 5.73674 -1.68981
2.1546 5.74543 -1.68981
2.13148 5.75406 -1.68981
2.10834 5.76258 -1.68981
2.08516 5.77102 -1.68981
2.06194 5.77934 -1.68981
2.03868 5.78758 -1.68981
2.0154 5.79572 -1.68981
1.99209 5.80379 -1.68981
1.96875 5.81174 -1.68981
1.94537 5.81963 -1.68981
1.92196 5.82738 -1.68981
1.89852 5.83506 -1.68981
1.87505 5.84266 -1.68981
1.85154 5.85016 -1.68981
1.82801 5.85754 -1.68981
1.80444 5.86484 -1.68981
1.78086 5.87203 -1.68981
1.75724 5.87916 -1.68981
1.73358 5.88617 -1.68981
1.70991 5.89309 -1.68981
1.68621 5.89992 -1.68981
1.66248 5.90666 -1.68981
1.63872 5.91328 -1.68981
1.61494 5.91982 -1.68981
1.59112 5.92627 -1.68981
1.56729 5.93262 -1.68981
1.54343 5.93889 -1.68981
1.51954 5.94502 -1.68981
1.49563 5.95107 -1.68981
1.4717 5.95705 -1.68981
1.44774 5.96293 -1.68981
1.42376 5.96871 -1.68981
1.39976 5.97436 -1.68981
1.37572 5.97994 -1.68981
1.35166 5.98543 -1.68981
1.3276 5.99082 -1.68981
1.30351 5.99611 -1.68981
1.27939 6.00131 -1.68981
1.25525 6.00639 -1.68981
1.2311 6.01139 -1.68981
1.20693 6.01629 -1.68981
1.18273 6.02109 -1.68981
1.15852 6.0258 -1.68981
1.13428 6.03039 -1.68981
1.11003 6.0349 -1.68981
1.08577 6.03934 -1.68981
1.06147 6.04365 -1.68981
1.03718 6.04787 -1.68981
1.01285 6.05197 -1.68981
0.988516 6.056 -1.68981
0.96416 6.05994 -1.68981
0.939795 6.06375 -1.68981
0.91541 6.06748 -1.68981
0.891016 6.07113 -1.68981
0.866602 6.07465 -1.68981
0.842178 6.07809 -1.68981
0.817734 6.08143 -1.68981
0.793281 6.08467 -1.68981
0.768809 6.08781 -1.68981
0.744326 6.09084 -1.68981
0.719854 6.09377 -1.68981
0.695342 6.09662 -1.68981
0.67083 6.09939 -1.68981
0.646309 6.10203 -1.68981
0.621777 6.10455 -1.68981
0.597207 6.10701 -1.68981
0.572656 6.10938 -1.68981
0.548105 6.11164 -1.68981
0.523525 6.11377 -1.68981
0.498945 6.11582 -1.68981
0.474355 6.11779 -1.68981
0.449756 6.11965 -1.68981
0.425156 6.12141 -1.68981
0.400547 6.12307 -1.68981
0.375937 6.12465 -1.68981
0.351309 6.12607 -1.68981
0.32667 6.12746 -1.68981
0.302041 6.12873 -1.68981
0.277402 6.12988 -1.68981
0.252754 6.13096 -1.68981
0.228105 6.13191 -1.68981
0.203457 6.13277 -1.68981
0.178809 6.13353 -1.68981
0.154141 6.13422 -1.68981
0.129492 6.13479 -1.68981
0.104824 6.13525 -1.68981
0.0801563 6.13562 -1.68981
0.0554883 6.1359 -1.68981
0.0308301 6.13607 -1.68981
0.00615234 6.13617 -1.68981
-0.0185059 6.13611 -1.68981
-0.0431738 6.136 -1.68981
-0.0678418 6.13578 -1.68981
-0.0925 6.13545 -1.68981
-0.117168 6.13504 -1.68981
-0.141826 6.13451 -1.68981
-0.166494 6.13389 -1.68981
-0.191143 6.13316 -1.68981
-0.215801 6.13236 -1.68981
-0.240449 6.13145 -1.68981
-0.265088 6.13043 -1.68981
-0.289736 6.12932 -1.68981
-0.314375 6.12809 -1.68981
-0.339004 6.12678 -1.68981
-0.363633 6.12537 -1.68981
-0.388262 6.12387 -1.68981
-0.412861 6.12225 -1.68981
-0.43748 6.12055 -1.68981
-0.46208 6.11873 -1.68981
-0.48667 6.11684 -1.68981
-0.51126 6.11482 -1.68981
-0.53583 6.11271 -1.68981
-0.5604 6.11049 -1.68981
-0.584961 6.10822 -1.68981
-0.609512 6.1058 -1.68981
-0.634043 6.10332 -1.68981
-0.658574 6.1007 -1.68981
-0.683096 6.09801 -1.68981
-0.707598 6.09523 -1.68981
-0.7321 6.09232 -1.68981
-0.756582 6.08934 -1.68981
-0.781055 6.08623 -1.68981
-0.805518 6.08305 -1.68981
-0.829971 6.07977 -1.68981
-0.854404 6.07637 -1.68981
-0.878818 6.07291 -1.68981
-0.903232 6.06932 -1.68981
-0.927617 6.06562 -1.68981
-0.952002 6.06186 -1.68981
-0.976357 6.05799 -1.68981
-1.00071 6.054 -1.68981
-1.02503 6.04994 -1.68981
-1.04935 6.04576 -1.68981
-1.07364 6.04148 -1.68981
-1.09791 6.03713 -1.68981
-1.12217 6.03268 -1.68981
-1.14642 6.02812 -1.68981
-1.17063 6.02346 -1.68981
-1.19484 6.01869 -1.68981
-1.21902 6.01385 -1.68981
-1.2432 6.00891 -1.68981
-1.26734 6.00387 -1.68981
-1.29146 5.99871 -1.68981
-1.31558 5.99346 -1.68981
-1.33966 5.98812 -1.68981
-1.36371 5.9827 -1.68981
-1.38776 5.97717 -1.68981
-1.41177 5.97154 -1.68981
-1.43576 5.96582 -1.68981
-1.45973 5.96 -1.68981
-1.48368 5.95408 -1.68981
-1.5076 5.94807 -1.68981
-1.5315 5.94195 -1.68981
-1.55538 5.93576 -1.68981
-1.57924 5.92945 -1.68981
-1.60306 5.92305 -1.68981
-1.62686 5.91658 -1.68981
-1.65062 5.90998 -1.68981
-1.67437 5.9033 -1.68981
-1.69809 5.89652 -1.68981
-1.72177 5.88965 -1.68981
-1.74544 5.88268 -1.68981
-1.76907 5.87562 -1.68981
-1.79268 5.86846 -1.68981
-1.81625 5.86119 -1.68981
-1.8398 5.85385 -1.68981
-1.86331 5.84641 -1.68981
-1.8868 5.83887 -1.68981
-1.91025 5.83123 -1.68981
-1.93368 5.8235 -1.68981
-1.95708 5.81568 -1.68981
-1.98044 5.80777 -1.68981
-1.99414 5.77191 -1.6817
-1.99413 5.69756 -1.66236
-1.99412 5.6249 -1.64349
-1.99654 5.56068 -1.62705
-2.00036 5.50166 -1.61212
-2.0041 5.44371 -1.59748
-2.01211 5.39844 -1.58656
-2.0338 5.39031 -1.58656
-2.05545 5.38209 -1.58656
-2.07707 5.37377 -1.58656
-2.09866 5.36537 -1.58656
-2.12021 5.35689 -1.58656
-2.14173 5.34834 -1.58656
-2.16322 5.33969 -1.58656
-2.20396 5.37805 -1.60058
-2.20739 5.32535 -1.58752
-2.22745 5.3132 -1.58656
-2.24879 5.3042 -1.58656
-2.2701 5.29514 -1.58656
-2.29136 5.28598 -1.58656
-2.3126 5.27672 -1.58656
-2.33378 5.26736 -1.58656
-2.35493 5.25795 -1.58656
-2.37605 5.24844 -1.58656
-2.39713 5.23885 -1.58656
-2.41818 5.22916 -1.58656
-2.43918 5.21939 -1.58656
-2.46015 5.20955 -1.58656
-2.48105 5.19961 -1.58656
-2.50194 5.18959 -1.58656
-2.52278 5.17949 -1.58656
-2.54358 5.16932 -1.58656
-2.56435 5.15906 -1.58656
-2.58507 5.14869 -1.58656
-2.60574 5.13826 -1.58656
-2.62638 5.12775 -1.58656
-2.64696 5.11717 -1.58656
-2.66753 5.10646 -1.58656
-2.68802 5.09572 -1.58656
-2.7085 5.08484 -1.58656
-2.72891 5.07393 -1.58656
-2.74928 5.06291 -1.58656
-2.76961 5.05184 -1.58656
-2.7899 5.04064 -1.58656
-2.81014 5.02939 -1.58656
-2.83033 5.01809 -1.58656
-2.85048 5.00664 -1.58656
-2.87059 4.99514 -1.58656
-2.89064 4.98355 -1.58656
-2.91065 4.97191 -1.58656
-2.93062 4.96018 -1.58656
-2.95053 4.94836 -1.58656
-2.9704 4.93643 -1.58656
-2.99022 4.92443 -1.58656
-3.00999 4.9124 -1.58656
-3.02973 4.90025 -1.58656
-3.0494 4.88805 -1.58656
-3.06901 4.87574 -1.58656
-3.08859 4.86334 -1.58656
-3.10812 4.85092 -1.58656
-3.1276 4.83836 -1.58656
-3.14702 4.82576 -1.58656
-3.16639 4.81309 -1.58656
-3.18571 4.80031 -1.58656
-3.20499 4.78746 -1.58656
-3.22421 4.77453 -1.58656
-3.24338 4.76152 -1.58656
-3.26248 4.74846 -1.58656
-3.28155 4.73531 -1.58656
-3.30056 4.72207 -1.58656
-3.31952 4.70877 -1.58656
-3.33842 4.69541 -1.58656
-3.35727 4.68191 -1.58656
-3.37605 4.66838 -1.58656
-3.3948 4.65479 -1.58656
-3.41348 4.64111 -1.58656
-3.43211 4.62736 -1.58656
-3.45068 4.6135 -1.58656
-3.4692 4.59963 -1.58656
-3.48767 4.58562 -1.58656
-3.50607 4.57156 -1.58656
-3.52442 4.55742 -1.58656
-3.54271 4.54324 -1.58656
-3.56095 4.52895 -1.58656
-3.57912 4.51461 -1.58656
-3.59724 4.5002 -1.58656
-3.6153 4.48566 -1.58656
-3.6333 4.47111 -1.58656
-3.65126 4.45646 -1.58656
-3.66914 4.44176 -1.58656
-3.68696 4.42697 -1.58656
-3.70473 4.41211 -1.58656
-3.72243 4.39719 -1.58656
-3.74009 4.38217 -1.58656
-3.75768 4.36709 -1.58656
-3.7752 4.35197 -1.58656
-3.79266 4.33676 -1.58656
-3.81007 4.32148 -1.58656
-3.8274 4.30613 -1.58656
-3.84469 4.2907 -1.58656
-3.8619 4.2752 -1.58656
-3.87906 4.25965 -1.58656
-3.89615 4.24402 -1.58656
-3.91317 4.22834 -1.58656
-3.93016 4.21256 -1.58656
-3.94705 4.19674 -1.58656
-3.96389 4.18084 -1.58656
-3.98065 4.16486 -1.58656
-3.99736 4.14881 -1.58656
-4.01401 4.13271 -1.58656
-4.03061 4.11654 -1.58656
-4.04711 4.10031 -1.58656
-4.06355 4.08402 -1.58656
-4.07995 4.06766 -1.58656
-4.09626 4.05121 -1.58656
-4.11252 4.03473 -1.58656
-4.1287 4.01814 -1.58656
-4.14482 4.00152 -1.58656
-4.16088 3.98482 -1.58656
-4.17686 3.96807 -1.58656
-4.19277 3.95125 -1.58656
-4.20863 3.93436 -1.58656
-4.2244 3.9174 -1.58656
-4.24013 3.90041 -1.58656
-4.25577 3.88332 -1.58656
-4.27135 3.86617 -1.58656
-4.28685 3.84898 -1.58656
-4.30229 3.83172 -1.58656
-4.31766 3.81439 -1.58656
-4.33296 3.79701 -1.58656
-4.34818 3.77957 -1.58656
-4.36335 3.76205 -1.58656
-4.37844 3.74445 -1.58656
-4.39345 3.72682 -1.58656
-4.4084 3.70914 -1.58656
-4.42327 3.69139 -1.58656
-4.43809 3.67357 -1.58656
-4.4528 3.65572 -1.58656
-4.46747 3.63779 -1.58656
-4.48206 3.6198 -1.58656
-4.49656 3.60176 -1.58656
-4.51101 3.58363 -1.58656
-4.52539 3.56547 -1.58656
-4.53969 3.54725 -1.58656
-4.55391 3.52898 -1.58656
-4.56806 3.51066 -1.58656
-4.58213 3.49227 -1.58656
-4.59612 3.47383 -1.58656
-4.61006 3.45531 -1.58656
-4.62391 3.43676 -1.58656
-4.6377 3.41812 -1.58656
-4.6514 3.39945 -1.58656
-4.66501 3.38072 -1.58656
-4.67857 3.36193 -1.58656
-4.69204 3.34311 -1.58656
-4.70545 3.32422 -1.58656
-4.71878 3.30529 -1.58656
-4.73202 3.28629 -1.58656
-4.7452 3.26725 -1.58656
-4.75829 3.24812 -1.58656
-4.77132 3.22898 -1.58656
-4.78426 3.20977 -1.58656
-4.79712 3.19053 -1.58656
-4.8099 3.17119 -1.58656
-4.82261 3.15184 -1.58656
-4.83523 3.13244 -1.58656
-4.8478 3.11297 -1.58656
-4.86027 3.09346 -1.58656
-4.87267 3.07391 -1.58656
-4.88499 3.05428 -1.58656
-4.89723 3.03461 -1.58656
-4.90938 3.0149 -1.58656
-4.92146 2.99514 -1.58656
-4.93347 2.97533 -1.58656
-4.94538 2.95549 -1.58656
-4.95723 2.93559 -1.58656
-4.96899 2.91562 -1.58656
-4.98067 2.89564 -1.58656
-4.99228 2.87559 -1.58656
-5.00379 2.85551 -1.58656
-5.01522 2.83535 -1.58656
-5.02658 2.81516 -1.58656
-5.03785 2.79494 -1.58656
-5.04906 2.77467 -1.58656
-5.06017 2.75436 -1.58656
-5.0712 2.73398 -1.58656
-5.08215 2.71359 -1.58656
-5.09301 2.69313 -1.58656
-5.10381 2.67262 -1.58656
-5.11451 2.65211 -1.58656
-5.12513 2.63152 -1.58656
-5.13567 2.6109 -1.58656
-5.14612 2.59021 -1.58656
-5.15648 2.56951 -1.58656
-5.16678 2.54875 -1.58656
-5.17698 2.52795 -1.58656
-5.1871 2.50713 -1.58656
-5.19714 2.48627 -1.58656
-5.20709 2.46537 -1.58656
-5.21695 2.44439 -1.58656
-5.22675 2.42342 -1.58656
-5.23645 2.40238 -1.58656
-5.24604 2.38133 -1.58656
-5.25559 2.36021 -1.58656
-5.26503 2.33906 -1.58656
-5.27439 2.31785 -1.58656
-5.28367 2.29664 -1.58656
-5.29286 2.27539 -1.58656
-5.30196 2.25408 -1.58656
-5.31098 2.23277 -1.58656
-5.31992 2.21139 -1.58656
-5.32876 2.19 -1.58656
-5.33752 2.16855 -1.58656
-5.3462 2.14709 -1.58656
-5.35478 2.12559 -1.58656
-5.36328 2.10404 -1.58656
-5.3717 2.08246 -1.58656
-5.38003 2.06086 -1.58656
-5.38827 2.0392 -1.58656
-5.39642 2.0175 -1.58656
-5.40448 1.9958 -1.58656
-5.41247 1.97406 -1.58656
-5.42035 1.9523 -1.58656
-5.42816 1.93051 -1.58656
-5.43589 1.90865 -1.58656
-5.44352 1.88678 -1.58656
-5.45105 1.8649 -1.58656
-5.45851 1.84297 -1.58656
-5.46587 1.821 -1.58656
-5.47314 1.79902 -1.58656
-5.48033 1.77701 -1.58656
-5.48743 1.75496 -1.58656
-5.49443 1.73289 -1.58656
-5.50137 1.71078 -1.58656
-5.5082 1.68865 -1.58656
-5.51494 1.6665 -1.58656
-5.5216 1.64432 -1.58656
-5.52816 1.62211 -1.58656
-5.53464 1.59986 -1.58656
-5.54103 1.5776 -1.58656
-5.54732 1.55531 -1.58656
-5.55353 1.53301 -1.58656
-5.55965 1.51066 -1.58656
-5.56568 1.48832 -1.58656
-5.57161 1.46592 -1.58656
-5.57746 1.44352 -1.58656
-5.58321 1.42109 -1.58656
-5.58889 1.39863 -1.58656
-5.59447 1.37613 -1.58656
-5.59995 1.35365 -1.58656
-5.60535 1.33113 -1.58656
-5.61065 1.30859 -1.58656
-5.61586 1.28602 -1.58656
-5.62099 1.26344 -1.58656
-5.62604 1.24082 -1.58656
-5.63097 1.2182 -1.58656
-5.63582 1.19557 -1.58656
-5.64058 1.17289 -1.58656
-5.64524 1.15021 -1.58656
-5.64982 1.1275 -1.58656
-5.65432 1.10477 -1.58656
-5.6587 1.08203 -1.58656
-5.66302 1.05928 -1.58656
-5.66722 1.0365 -1.58656
-5.67134 1.01371 -1.58656
-5.67538 0.990898 -1.58656
-5.67932 0.968086 -1.58656
-5.68315 0.945254 -1.58656
-5.68691 0.922402 -1.58656
-5.69057 0.899531 -1.58656
-5.69415 0.876641 -1.58656
-5.69763 0.85375 -1.58656
-5.70101 0.83084 -1.58656
-5.70431 0.80791 -1.58656
-5.70751 0.78498 -1.58656
-5.71062 0.762031 -1.58656
-5.71363 0.739062 -1.58656
-5.71655 0.716094 -1.58656
-5.71938 0.693105 -1.58656
-5.72213 0.670098 -1.58656
-5.72477 0.647109 -1.58656
-5.72733 0.624082 -1.58656
-5.7298 0.601055 -1.58656
-5.73216 0.578027 -1.58656
-5.73444 0.554961 -1.58656
-5.73663 0.531914 -1.58656
-5.73871 0.508848 -1.58656
-5.74071 0.485781 -1.58656
-5.74263 0.462695 -1.58656
-5.74444 0.439609 -1.58656
-5.74616 0.416504 -1.58656
-5.74778 0.393398 -1.58656
-5.74932 0.370293 -1.58656
-5.75076 0.347187 -1.58656
-5.7521 0.324062 -1.58656
-5.75337 0.300957 -1.58656
-5.75454 0.277793 -1.58656
-5.75561 0.254668 -1.58656
-5.75658 0.231543 -1.58656
-5.75747 0.208379 -1.58656
-5.75825 0.185234 -1.58656
-5.75896 0.16209 -1.58656
-5.75955 0.138926 -1.58656
-5.76007 0.115801 -1.58656
-5.76049 0.0926367 -1.58656
-5.76081 0.0694727 -1.58656
-5.76104 0.0463086 -1.58656
-5.76118 0.0231445 -1.58656
-5.52145 0 -1.58656
-5.52142 -0.0221875 -1.58656
-5.52128 -0.0443945 -1.58656
-5.52105 -0.066582 -1.58656
-5.52075 -0.0887695 -1.58656
-5.52034 -0.110977 -1.58656
-5.51985 -0.133164 -1.58656
-5.51927 -0.155352 -1.58656
-5.51861 -0.177539 -1.58656
-5.51784 -0.199707 -1.58656
-5.517 -0.221895 -1.58656
-5.51606 -0.244082 -1.58656
-5.51503 -0.26625 -1.58656
-5.51393 -0.288418 -1.58656
-5.51271 -0.310586 -1.58656
-5.51143 -0.332754 -1.58656
-5.51005 -0.354883 -1.58656
-5.50856 -0.377031 -1.58656
-5.50701 -0.39918 -1.58656
-5.50536 -0.421328 -1.58656
-5.50361 -0.443437 -1.58656
-5.5018 -0.465566 -1.58656
-5.49987 -0.487676 -1.58656
-5.49787 -0.509766 -1.58656
-5.49578 -0.531895 -1.58656
-5.49359 -0.553965 -1.58656
-5.49132 -0.576055 -1.58656
-5.48896 -0.598125 -1.58656
-5.48652 -0.620176 -1.58656
-5.48398 -0.642227 -1.58656
-5.48135 -0.664277 -1.58656
-5.47865 -0.686309 -1.58656
-5.47584 -0.70832 -1.58656
-5.47294 -0.730312 -1.58656
-5.46996 -0.752324 -1.58656
-5.46688 -0.774316 -1.58656
-5.46374 -0.796289 -1.58656
-5.4605 -0.818242 -1.58656
-5.45716 -0.840176 -1.58656
-5.45374 -0.862129 -1.58656
-5.45023 -0.884043 -1.58656
-5.44663 -0.905937 -1.58656
-5.44295 -0.927812 -1.58656
-5.43918 -0.949707 -1.58656
-5.43531 -0.971543 -1.58656
-5.43137 -0.993379 -1.58656
-5.42732 -1.01521 -1.58656
-5.4232 -1.03703 -1.58656
-5.41898 -1.05883 -1.58656
-5.41468 -1.08061 -1.58656
-5.4103 -1.10234 -1.58656
-5.40583 -1.1241 -1.58656
-5.40126 -1.14584 -1.58656
-5.39661 -1.16752 -1.58656
-5.39187 -1.1892 -1.58656
-5.38704 -1.21086 -1.58656
-5.38214 -1.2325 -1.58656
-5.37715 -1.25414 -1.58656
-5.37205 -1.27574 -1.58656
-5.36688 -1.29732 -1.58656
-5.36163 -1.31889 -1.58656
-5.35628 -1.34043 -1.58656
-5.35085 -1.36195 -1.58656
-5.34533 -1.38346 -1.58656
-5.33973 -1.40492 -1.58656
-5.33403 -1.42639 -1.58656
-5.32826 -1.44783 -1.58656
-5.32239 -1.46922 -1.58656
-5.31645 -1.49061 -1.58656
-5.31041 -1.51197 -1.58656
-5.30429 -1.53332 -1.58656
-5.29809 -1.55463 -1.58656
-5.2918 -1.5759 -1.58656
-5.2854 -1.59717 -1.58656
-5.27895 -1.6184 -1.58656
-5.27241 -1.63961 -1.58656
-5.26576 -1.66078 -1.58656
-5.25905 -1.68193 -1.58656
-5.25225 -1.70307 -1.58656
-5.24536 -1.72416 -1.58656
-5.23839 -1.74523 -1.58656
-5.23133 -1.76627 -1.58656
-5.22418 -1.78729 -1.58656
-5.21696 -1.80828 -1.58656
-5.20965 -1.82924 -1.58656
-5.20225 -1.85018 -1.58656
-5.19477 -1.87105 -1.58656
-5.18721 -1.89193 -1.58656
-5.17955 -1.91275 -1.58656
-5.17184 -1.93357 -1.58656
-5.16402 -1.95436 -1.58656
-5.15612 -1.9751 -1.58656
-5.14813 -1.9958 -1.58656
-5.14007 -2.0165 -1.58656
-5.13192 -2.03713 -1.58656
-5.12369 -2.05773 -1.58656
-5.11538 -2.07832 -1.58656
-5.10699 -2.09887 -1.58656
-5.09851 -2.11937 -1.58656
-5.08994 -2.13984 -1.58656
-5.0813 -2.16029 -1.58656
-5.07258 -2.1807 -1.58656
-5.06377 -2.20109 -1.58656
-5.05488 -2.22143 -1.58656
-5.04591 -2.24174 -1.58656
-5.03685 -2.26199 -1.58656
-5.02772 -2.28223 -1.58656
-5.01851 -2.30242 -1.58656
-5.00921 -2.32256 -1.58656
-4.99983 -2.34268 -1.58656
-4.99038 -2.36275 -1.58656
-4.98084 -2.38281 -1.58656
-4.97122 -2.40281 -1.58656
-4.96152 -2.42277 -1.58656
-4.95174 -2.44271 -1.58656
-4.94187 -2.4626 -1.58656
-4.93194 -2.48244 -1.58656
-4.92192 -2.50225 -1.58656
-4.91183 -2.52201 -1.58656
-4.90165 -2.54174 -1.58656
-4.89139 -2.56143 -1.58656
-4.88104 -2.58105 -1.58656
-4.87063 -2.60066 -1.58656
-4.86014 -2.62021 -1.58656
-4.84956 -2.63973 -1.58656
-4.83892 -2.65922 -1.58656
-4.82819 -2.67863 -1.58656
-4.81738 -2.69803 -1.58656
-4.8065 -2.71738 -1.58656
-4.79554 -2.73668 -1.58656
-4.78448 -2.75594 -1.58656
-4.77338 -2.77516 -1.58656
-4.76219 -2.79432 -1.58656
-4.75091 -2.81342 -1.58656
-4.73956 -2.8325 -1.58656
-4.72813 -2.85152 -1.58656
-4.71665 -2.87053 -1.58656
-4.70506 -2.88945 -1.58656
-4.69341 -2.90834 -1.58656
-4.68168 -2.92719 -1.58656
-4.66987 -2.946 -1.58656
-4.65799 -2.96475 -1.58656
-4.64604 -2.98344 -1.58656
-4.63399 -3.00209 -1.58656
-4.62189 -3.02068 -1.58656
-4.60972 -3.03924 -1.58656
-4.59747 -3.05773 -1.58656
-4.58513 -3.07621 -1.58656
-4.57273 -3.09461 -1.58656
-4.56025 -3.11297 -1.58656
-4.54771 -3.13129 -1.58656
-4.53508 -3.14953 -1.58656
-4.52239 -3.16775 -1.58656
-4.50961 -3.1859 -1.58656
-4.49677 -3.20398 -1.58656
-4.48385 -3.22205 -1.58656
-4.47087 -3.24006 -1.58656
-4.45781 -3.25799 -1.58656
-4.44467 -3.27588 -1.58656
-4.43146 -3.29373 -1.58656
-4.41819 -3.31152 -1.58656
-4.40484 -3.32926 -1.58656
-4.39143 -3.34693 -1.58656
-4.37794 -3.36455 -1.58656
-4.36438 -3.38211 -1.58656
-4.35074 -3.39965 -1.58656
-4.33704 -3.41711 -1.58656
-4.32327 -3.43451 -1.58656
-4.30942 -3.45187 -1.58656
-4.29552 -3.46918 -1.58656
-4.28154 -3.48641 -1.58656
-4.2675 -3.50359 -1.58656
-4.25337 -3.5207 -1.58656
-4.23917 -3.53775 -1.58656
-4.22492 -3.55479 -1.58656
-4.2106 -3.57174 -1.58656
-4.19621 -3.58865 -1.58656
-4.18175 -3.60549 -1.58656
-4.16723 -3.62227 -1.58656
-4.15263 -3.639 -1.58656
-4.13796 -3.65566 -1.58656
-4.12323 -3.67227 -1.58656
-4.10844 -3.68879 -1.58656
-4.09357 -3.70527 -1.58656
-4.07865 -3.72172 -1.58656
-4.06365 -3.73809 -1.58656
-4.04859 -3.75439 -1.58656
-4.03348 -3.77064 -1.58656
-4.01828 -3.78684 -1.58656
-4.00302 -3.80293 -1.58656
-3.9877 -3.81902 -1.58656
-3.97232 -3.835 -1.58656
-3.95687 -3.85094 -1.58656
-3.94137 -3.86682 -1.58656
-3.92578 -3.88262 -1.58656
-3.91016 -3.89838 -1.58656
-3.89444 -3.91406 -1.58656
-3.87867 -3.92969 -1.58656
-3.86285 -3.94525 -1.58656
-3.84696 -3.96074 -1.58656
-3.831 -3.97617 -1.58656
-3.81499 -3.99154 -1.58656
-3.79891 -4.00684 -1.58656
-3.78277 -4.02209 -1.58656
-3.76657 -4.03727 -1.58656
-3.75032 -4.05238 -1.58656
-3.734 -4.06742 -1.58656
-3.71762 -4.08238 -1.58656
-3.70117 -4.0973 -1.58656
-3.68467 -4.11215 -1.58656
-3.66812 -4.12693 -1.58656
-3.65149 -4.14164 -1.58656
-3.63481 -4.15629 -1.58656
-3.61808 -4.17088 -1.58656
-3.60128 -4.18537 -1.58656
-3.58442 -4.1998 -1.58656
-3.56751 -4.21418 -1.58656
-3.55054 -4.2285 -1.58656
-3.53352 -4.24273 -1.58656
-3.51643 -4.25691 -1.58656
-3.4993 -4.27102 -1.58656
-3.48208 -4.28506 -1.58656
-3.46483 -4.299 -1.58656
-3.44753 -4.31291 -1.58656
-3.43017 -4.32672 -1.58656
-3.41274 -4.34049 -1.58656
-3.39527 -4.35416 -1.58656
-3.37773 -4.36779 -1.58656
-3.36015 -4.38131 -1.58656
-3.34251 -4.39478 -1.58656
-3.32482 -4.40818 -1.58656
-3.30707 -4.42152 -1.58656
-3.28927 -4.43478 -1.58656
-3.27142 -4.44797 -1.58656
-3.25352 -4.46109 -1.58656
-3.23556 -4.47414 -1.58656
-3.21754 -4.48709 -1.58656
-3.19947 -4.49998 -1.58656
-3.18136 -4.51281 -1.58656
-3.1632 -4.52557 -1.58656
-3.14498 -4.53826 -1.58656
-3.1267 -4.55086 -1.58656
-3.10839 -4.56338 -1.58656
-3.09001 -4.57584 -1.58656
-3.07159 -4.58822 -1.58656
-3.05313 -4.60053 -1.58656
-3.03461 -4.61277 -1.58656
-3.01604 -4.62494 -1.58656
-2.99743 -4.63703 -1.58656
-2.97876 -4.64904 -1.58656
-2.96005 -4.66098 -1.58656
-2.94128 -4.67283 -1.58656
-2.92248 -4.68463 -1.58656
-2.90362 -4.69633 -1.58656
-2.88473 -4.70797 -1.58656
-2.86577 -4.71953 -1.58656
-2.84678 -4.731 -1.58656
-2.82773 -4.7424 -1.58656
-2.80864 -4.75373 -1.58656
-2.78951 -4.765 -1.58656
-2.77034 -4.77617 -1.58656
-2.75111 -4.78727 -1.58656
-2.73185 -4.79828 -1.58656
-2.71253 -4.80924 -1.58656
-2.69317 -4.8201 -1.58656
-2.67378 -4.83088 -1.58656
-2.65435 -4.84158 -1.58656
-2.63485 -4.85223 -1.58656
-2.61533 -4.86277 -1.58656
-2.59576 -4.87326 -1.58656
-2.57615 -4.88365 -1.58656
-2.55649 -4.89396 -1.58656
-2.53681 -4.9042 -1.58656
-2.51707 -4.91436 -1.58656
-2.49729 -4.92443 -1.58656
-2.47747 -4.93445 -1.58656
-2.45762 -4.94438 -1.58656
-2.43772 -4.9542 -1.58656
-2.41779 -4.96396 -1.58656
-2.39781 -4.97363 -1.58656
-2.37781 -4.98324 -1.58656
-2.35774 -4.99275 -1.58656
-2.33766 -5.00221 -1.58656
-2.31754 -5.01156 -1.58656
-2.29737 -5.0208 -1.58656
-2.27717 -5.03002 -1.58656
-2.25693 -5.03912 -1.58656
-2.23666 -5.04816 -1.58656
-2.21634 -5.05711 -1.58656
-2.19599 -5.066 -1.58656
-2.19277 -5.1148 -1.59907
-2.1552 -5.08348 -1.58656
-2.13474 -5.09209 -1.58656
-2.11426 -5.10063 -1.58656
-2.09373 -5.1091 -1.58656
-2.07318 -5.11748 -1.58656
-2.05259 -5.12576 -1.58656
-2.03196 -5.13398 -1.58656
-2.01131 -5.14209 -1.58656
-1.99449 -5.16016 -1.58965
-1.99094 -5.21318 -1.6035
-1.98731 -5.26711 -1.61763
-1.98362 -5.32201 -1.63202
-1.98245 -5.38492 -1.64886
-1.98244 -5.4524 -1.66706
-1.98244 -5.52141 -1.68571
-1.965 -5.54279 -1.68981
-1.9427 -5.55064 -1.68981
-1.92037 -5.55842 -1.68981
-1.89802 -5.56607 -1.68981
-1.87562 -5.57365 -1.68981
-1.85319 -5.58117 -1.68981
-1.83074 -5.58857 -1.68981
-1.80827 -5.59588 -1.68981
-1.78576 -5.60311 -1.68981
-1.76322 -5.61023 -1.68981
-1.74065 -5.61729 -1.68981
-1.71806 -5.62424 -1.68981
-1.69543 -5.63109 -1.68981
-1.67277 -5.63785 -1.68981
-1.65011 -5.64455 -1.68981
-1.6274 -5.65111 -1.68981
-1.60467 -5.65762 -1.68981
-1.58192 -5.66402 -1.68981
-1.55914 -5.67035 -1.68981
-1.53633 -5.67656 -1.68981
-1.51351 -5.6827 -1.68981
-1.49064 -5.68873 -1.68981
-1.46776 -5.69469 -1.68981
-1.44486 -5.70055 -1.68981
-1.42193 -5.70631 -1.68981
-1.39898 -5.71195 -1.68981
-1.37601 -5.71754 -1.68981
-1.35302 -5.72303 -1.68981
-1.32999 -5.72844 -1.68981
-1.30696 -5.73373 -1.68981
-1.2839 -5.73893 -1.68981
-1.26081 -5.74404 -1.68981
-1.23771 -5.74906 -1.68981
-1.2146 -5.754 -1.68981
-1.19145 -5.75883 -1.68981
-1.16829 -5.76359 -1.68981
-1.14511 -5.76822 -1.68981
-1.12192 -5.77277 -1.68981
-1.09869 -5.77725 -1.68981
-1.07546 -5.78162 -1.68981
-1.05223 -5.78592 -1.68981
-1.02895 -5.79006 -1.68981
-1.00566 -5.79416 -1.68981
-0.982363 -5.79816 -1.68981
-0.959053 -5.80207 -1.68981
-0.935723 -5.80586 -1.68981
-0.912373 -5.80961 -1.68981
-0.889014 -5.8132 -1.68981
-0.865645 -5.81674 -1.68981
-0.842246 -5.82018 -1.68981
-0.818828 -5.8235 -1.68981
-0.79542 -5.82676 -1.68981
-0.771992 -5.82988 -1.68981
-0.748545 -5.83295 -1.68981
-0.725098 -5.83592 -1.68981
