ply
format ascii 1.0
comment Created by Open3D
element vertex 1916
property float x
property float y
property float z
end_header
-17.8923 5.25012 2.23186
-17.8446 5.15832 2.22332
-17.7975 5.06725 2.21488
-19.0264 5.33455 2.36513
-19.0505 5.25881 2.36549
-19.0638 5.18008 2.36453
-19.0772 5.10146 2.36363
-19.0386 5.00922 2.35633
-18.9675 4.90908 2.34507
-18.8972 4.8099 2.33396
-18.8275 4.71168 2.32301
-18.7586 4.61436 2.3122
-18.6904 4.51799 2.30153
-18.6229 4.4225 2.29101
-19.1653 4.47 2.3555
-19.2008 4.39697 2.35768
-19.2149 4.31898 2.35726
-19.2291 4.24105 2.35689
-19.2433 4.16314 2.35656
-19.2577 4.08527 2.35629
-19.2721 4.00744 2.35606
-19.2866 3.92963 2.35588
-19.3011 3.85186 2.35575
-18.4426 3.6035 2.24918
-18.4545 3.52885 2.24888
-18.6026 3.47973 2.26521
-18.7463 3.42865 2.28101
-18.8185 3.36375 2.28813
-18.8913 3.29844 2.29535
-18.9646 3.23275 2.30266
-19.0385 3.16662 2.31007
-19.2946 3.12959 2.3396
-19.4044 3.06738 2.3514
-16.7055 2.57195 2.02308
-16.7365 2.50789 2.02559
-16.7677 2.44369 2.02816
-16.7619 2.37408 2.02629
-19.6241 2.69902 2.37097
-19.6668 2.62439 2.37483
-19.7098 2.54955 2.37877
-19.7532 2.47445 2.38278
-19.7969 2.39912 2.38687
-19.8409 2.32357 2.39103
-19.8852 2.24777 2.39527
-19.93 2.17172 2.39959
-19.902 1.36223 2.38769
-19.8609 1.27922 2.38212
-19.8202 1.1966 2.37664
-19.7798 1.11437 2.37125
-19.7399 1.03254 2.36594
-19.7002 0.951074 2.36072
-19.661 0.86998 2.35558
-19.6221 0.789238 2.35052
-19.5836 0.708848 2.34554
-19.5454 0.628809 2.34065
-20.8688 0.587402 2.49882
-39.5552 -1.4317 4.29323
-22.5011 -0.905 2.4426
-22.3899 -0.990664 2.43093
-22.2799 -1.07557 2.41944
-22.1711 -1.15969 2.40812
-19.7881 -1.11482 2.14975
-19.6877 -1.18857 2.13935
-19.6037 -1.26264 2.13076
-19.6126 -1.34238 2.13229
-19.6215 -1.42227 2.13387
-19.6305 -1.50227 2.13548
-19.7618 -1.59225 2.15044
-38.2603 -3.23756 4.1648
-38.3485 -3.40035 4.17585
-38.4041 -3.56094 4.18344
-40.5921 -4.25812 4.42705
-22.2913 -4.54189 2.46754
-22.2275 -4.62205 2.46251
-22.164 -4.70187 2.45755
-22.1845 -4.79949 2.46194
-22.2249 -4.90186 2.46859
-28.362 -6.3751 3.15309
-24.5083 -5.61236 2.72715
-24.2698 -5.66051 2.70312
-24.0356 -5.70787 2.67957
-23.8057 -5.75445 2.65649
-23.5798 -5.80029 2.63387
-23.358 -5.84541 2.6117
-23.14 -5.88978 2.58995
-22.9258 -5.93352 2.56863
-22.7153 -5.97656 2.54771
-22.5084 -6.01896 2.52719
-22.3049 -6.06072 2.50706
-22.1048 -6.10187 2.4873
-21.7457 -6.09693 2.44964
-21.3862 -6.08896 2.41188
-21.0379 -6.08133 2.37534
-21.0279 -6.17018 2.37699
-21.0282 -6.26217 2.37985
-21.0285 -6.35437 2.38276
-21.0289 -6.44686 2.38572
-21.0294 -6.53963 2.38874
-21.03 -6.63264 2.39182
-21.0307 -6.72594 2.39495
-21.0315 -6.81949 2.39815
-21.0324 -6.91334 2.4014
-20.3299 -6.77312 2.32428
-13.2831 -4.48484 1.52067
-13.2606 -4.53672 1.52018
-13.2382 -4.58857 1.51971
-13.2159 -4.64045 1.51928
-13.1936 -4.69229 1.51887
-13.1714 -4.7441 1.5185
-13.1492 -4.79592 1.51815
-13.127 -4.8477 1.51782
-13.0872 -4.89287 1.51549
-13.0476 -4.93797 1.51319
-13.0082 -4.98291 1.51093
-12.969 -5.02775 1.50871
-12.9299 -5.07252 1.50652
-12.891 -5.11713 1.50437
-12.8523 -5.16166 1.50226
-12.8137 -5.20607 1.50019
-12.7753 -5.25041 1.49815
-12.737 -5.29463 1.49615
-12.6989 -5.33877 1.49418
-12.661 -5.38279 1.49225
-12.6232 -5.42676 1.49036
-12.5856 -5.47062 1.4885
-12.5481 -5.51439 1.48667
-12.5107 -5.55809 1.48488
-12.4735 -5.60172 1.48313
-12.4364 -5.64525 1.48141
-12.3995 -5.68871 1.47972
-12.3627 -5.73211 1.47807
-12.3261 -5.77543 1.47645
-12.2895 -5.81869 1.47486
-12.2531 -5.86188 1.47331
-12.2169 -5.90498 1.47179
-12.1807 -5.94805 1.47031
-12.1447 -5.99103 1.46885
-12.1088 -6.03396 1.46744
-12.0731 -6.07684 1.46605
-12.0374 -6.11967 1.46469
-12.0019 -6.16244 1.46337
-11.9664 -6.20518 1.46208
-11.9311 -6.24783 1.46082
-11.8959 -6.29047 1.4596
-11.8608 -6.33307 1.4584
-11.8258 -6.37561 1.45724
-11.7909 -6.41811 1.45611
-11.7562 -6.46055 1.45501
-11.7215 -6.50299 1.45394
-11.6869 -6.54539 1.4529
-11.6524 -6.58775 1.4519
-11.618 -6.63008 1.45092
-11.5837 -6.6724 1.44998
-11.5495 -6.71467 1.44906
-11.5154 -6.75691 1.44818
-11.4814 -6.79914 1.44733
-11.4475 -6.84135 1.44651
-11.4136 -6.88355 1.44571
-11.3799 -6.92572 1.44495
-11.3421 -6.96539 1.4437
-11.2942 -6.99863 1.44117
-26.7777 -16.7426 3.42549
-26.6892 -16.8369 3.42279
-26.6009 -16.931 3.42017
-26.5129 -17.0252 3.41762
-26.4251 -17.1192 3.41515
-26.3175 -17.2 3.41015
-20.8738 -13.7623 2.71191
-20.7178 -13.7793 2.69882
-25.9777 -17.4286 3.39311
-28.6038 -19.3577 3.74625
-28.6064 -19.5276 3.75685
-16.8151 -11.5779 2.21441
-33.0475 -22.9509 4.3642
-32.9341 -23.069 4.36143
-32.8208 -23.1869 4.35874
-33.3022 -23.7282 4.43531
-17.7377 -12.7461 2.36917
-17.8188 -12.9133 2.38692
-23.055 -17.1358 3.11579
-22.8929 -17.1586 3.10318
-22.7322 -17.1813 3.09073
-22.5729 -17.204 3.07846
-22.415 -17.2265 3.06634
-22.2585 -17.249 3.05439
-21.0731 -16.4664 2.90079
-20.9975 -16.5437 2.89951
-20.9221 -16.6211 2.8983
-15.6628 -12.5459 2.17671
-15.5354 -12.5468 2.166
-15.4803 -12.6054 2.16536
-15.4253 -12.664 2.16476
-11.8213 -9.78508 1.6645
-11.7602 -9.81443 1.66143
-11.6993 -9.84369 1.65841
-11.6387 -9.87281 1.65542
-11.5995 -9.92006 1.65551
-11.5938 -9.99617 1.66042
-11.5881 -10.0727 1.66539
-11.5824 -10.1498 1.67041
-19.4724 -17.2028 2.81829
-19.2585 -17.1521 2.79728
-20.388 -18.3057 2.97201
-20.4651 -18.5239 2.99407
-16.7347 -15.2702 2.45726
-16.5937 -15.2642 2.44554
-16.5421 -15.34 2.44702
-16.4905 -15.4159 2.44853
-16.5283 -15.5762 2.46342
-19.3302 -18.364 2.892
-19.4591 -18.6359 2.92247
-19.591 -18.9138 2.95368
-19.7261 -19.198 2.98566
-19.8644 -19.4887 3.01843
-20.5041 -20.2787 3.12799
-20.4798 -20.4182 3.13678
-20.4555 -20.5586 3.14569
-20.4311 -20.6998 3.15471
-26.302 -26.8631 4.07785
-26.1573 -26.931 4.07217
-26.013 -26.9987 4.06657
-25.8692 -27.0664 4.06107
-25.7259 -27.134 4.05566
-24.6428 -26.2018 3.90148
-24.7305 -26.5078 3.93221
-24.8199 -26.8189 3.96354
-24.9111 -27.1354 3.99548
-25.004 -27.4575 4.02806
-29.3591 -32.5014 4.75065
-29.1922 -32.579 4.74481
-29.026 -32.6567 4.73909
-28.8604 -32.7344 4.7335
-23.7489 -27.1561 3.91303
-25.3348 -29.2055 4.19363
-24.9328 -28.9767 4.14634
-25.2909 -29.633 4.22567
-25.9647 -30.6713 4.35881
-26.8443 -31.9701 4.52801
-26.4868 -31.8031 4.48924
-40.976 -49.6046 6.97875
-16.3237 -19.9236 2.79375
-16.3751 -20.1511 2.81639
-25.925 -32.1665 4.48112
-25.2753 -31.6197 4.39075
-25.0856 -31.6424 4.37987
-24.9628 -31.7488 4.38067
-24.8073 -31.8133 4.37578
-24.6521 -31.8779 4.37099
-24.4974 -31.9423 4.36629
-24.3345 -31.9955 4.36015
-24.0443 -31.8791 4.33107
-22.3426 -29.8719 4.04614
-22.2865 -30.048 4.05783
-22.2215 -30.2135 4.06808
-23.0677 -31.6296 4.24622
-22.9785 -31.7748 4.25328
-22.8891 -31.9206 4.26045
-22.7995 -32.0671 4.26774
-22.7098 -32.2143 4.27514
-22.6198 -32.3621 4.28265
-22.5215 -32.4989 4.28875
-21.3339 -31.0511 4.08635
-21.2309 -31.1688 4.09057
-21.1277 -31.287 4.09489
-21.009 -31.3824 4.0963
-20.8555 -31.4257 4.09098
-21.8327 -33.1869 4.30878
-21.7175 -33.3027 4.31244
-21.6005 -33.4161 4.31584
-21.4404 -33.4628 4.31071
-21.2809 -33.5095 4.30567
-21.305 -33.8474 4.33804
-21.3308 -34.1925 4.37125
-21.3572 -34.5433 4.40509
-21.2928 -34.7506 4.42058
-21.0966 -34.7432 4.40882
-20.9017 -34.7362 4.39723
-20.7079 -34.7295 4.38581
-21.2249 -35.924 4.52583
-34.8568 -62.3844 7.75124
-34.2342 -61.8529 7.66804
-7.85614 -14.6072 1.799
-18.6445 -35.003 4.30166
-18.539 -35.1448 4.3099
-18.4335 -35.2877 4.3183
-18.3277 -35.4317 4.32686
-18.2218 -35.5767 4.33559
-18.1158 -35.7228 4.34448
-18.0095 -35.87 4.35355
-17.9031 -36.0183 4.36278
-17.7864 -36.1474 4.36972
-17.6223 -36.1804 4.3651
-17.4587 -36.2135 4.3606
-17.2955 -36.2468 4.35621
-22.2063 -47.024 5.64066
-22.1236 -47.3408 5.66795
-22.0403 -47.6611 5.69564
-21.9563 -47.9849 5.72374
-21.8717 -48.3124 5.75227
-21.5877 -48.1998 5.72849
-21.4482 -48.4091 5.74307
-21.3082 -48.6198 5.75785
-21.1675 -48.8319 5.77285
-21.0263 -49.0454 5.78806
-20.8845 -49.2604 5.80347
-20.742 -49.4769 5.81911
-20.5942 -49.6835 5.83362
-19.1318 -48.3386 5.63885
-18.8546 -48.2036 5.61422
-18.5726 -48.0512 5.58772
-18.63 -48.7818 5.66393
-18.3382 -48.6031 5.63459
-18.0577 -48.4483 5.60817
-17.8633 -48.5221 5.60836
-17.197 -47.2977 5.4588
-17.043 -47.4674 5.47044
-16.8599 -47.5576 5.47298
-16.6566 -47.5908 5.46904
-16.4538 -47.6246 5.46529
-16.8203 -49.3269 5.65283
-16.7348 -49.7298 5.69125
-16.4832 -49.6414 5.67351
-16.5381 -50.4843 5.7622
-15.2956 -50.0715 5.67884
-15.2185 -50.5457 5.72563
-2.81702 -9.49434 1.07419
-2.774 -9.48904 1.07234
-2.74116 -9.51861 1.07441
-2.67738 -45.1014 4.90063
10.7819 -46.8663 5.21623
10.8947 -46.5001 5.1803
11.0073 -46.1447 5.14559
11.0536 -45.5273 5.08166
11.1103 -44.9713 5.02455
11.3037 -44.977 5.03023
11.4976 -44.9828 5.036
6.56068 -25.2443 2.82913
11.8867 -44.9943 5.04782
12.0731 -44.967 5.05016
12.2777 -45.0059 5.06003
12.4542 -44.9404 5.05826
12.6706 -45.0175 5.07263
12.8384 -44.9205 5.06747
13.0655 -45.0292 5.08562
13.2364 -44.9423 5.08178
13.4625 -45.0409 5.099
13.6617 -45.0468 5.10585
13.8615 -45.0527 5.11279
14.0619 -45.0587 5.11984
14.2628 -45.0646 5.12699
14.4643 -45.0705 5.13424
14.6663 -45.0765 5.1416
14.8589 -45.0522 5.14559
15.0399 -44.9921 5.14559
15.2314 -44.9631 5.14924
15.4353 -44.9692 5.15699
15.6397 -44.9752 5.16485
15.8448 -44.9813 5.17282
16.0505 -44.9874 5.1809
16.2478 -44.9682 5.18618
16.4284 -44.9025 5.18618
16.6334 -44.9027 5.19387
16.8413 -44.9088 5.20238
17.0499 -44.915 5.21099
17.2592 -44.9212 5.21971
17.4691 -44.9274 5.22855
10.1768 -18.4745 2.28778
10.1768 -18.3 2.27123
9.9998 -17.8129 2.21574
10.0495 -17.7339 2.21092
9.96389 -17.4193 2.17669
9.918 -17.1785 2.15155
9.91803 -17.0201 2.13669
9.91805 -16.864 2.12207
9.91807 -16.7099 2.10769
9.91809 -16.5579 2.09353
9.94912 -16.4593 2.08609
9.98182 -16.3644 2.07914
10.0143 -16.2702 2.07227
10.0466 -16.1766 2.06547
10.0218 -15.9929 2.04714
9.02683 -14.2772 1.83216
9.00119 -14.1108 1.81543
8.97609 -13.9474 1.79905
8.95149 -13.7871 1.78299
8.9274 -13.6297 1.76727
8.90378 -13.4752 1.75185
8.88064 -13.3234 1.73675
8.85795 -13.1743 1.72194
8.83571 -13.0278 1.70742
8.81902 -12.8913 1.69417
8.84467 -12.8179 1.68918
8.87021 -12.745 1.68426
8.89698 -12.6745 1.67966
8.95938 -12.6549 1.68182
9.02195 -12.6353 1.68402
9.08472 -12.6157 1.68626
9.14768 -12.596 1.68853
9.2134 -12.5798 1.69131
9.29584 -12.586 1.69715
9.37889 -12.5922 1.70305
9.46255 -12.5985 1.70903
9.54263 -12.5993 1.71433
9.61639 -12.5912 1.71848
9.69051 -12.583 1.72267
9.76503 -12.5749 1.72692
9.83994 -12.5667 1.73122
9.91524 -12.5586 1.73557
9.99096 -12.5504 1.73998
10.0671 -12.5422 1.74444
10.1436 -12.534 1.74896
10.1775 -12.4731 1.74615
10.1776 -12.3713 1.7376
10.1776 -12.2704 1.72917
10.1776 -12.1705 1.72084
10.1776 -12.0716 1.71263
10.1776 -11.9736 1.70452
10.1776 -11.8765 1.69651
10.1776 -11.7804 1.6886
10.1776 -11.6851 1.6808
10.1777 -11.5907 1.67309
10.1777 -11.4971 1.66548
10.1777 -11.4045 1.65797
10.1777 -11.3126 1.65055
10.026 -11.0543 1.61873
10.086 -11.031 1.62124
10.1777 -11.0419 1.62884
10.1777 -10.9532 1.62178
10.0504 -10.7293 1.5946
10.0849 -10.6798 1.59326
10.1778 -10.6917 1.60112
10.1778 -10.606 1.59441
10.1778 -10.5211 1.58777
10.0793 -10.3358 1.56591
10.0919 -10.2658 1.56144
10.1734 -10.2658 1.56765
10.1778 -10.1881 1.56201
10.1778 -10.1065 1.55577
10.1779 -10.0256 1.5496
10.112 -9.88088 1.5335
10.1441 -9.83283 1.53236
10.1779 -9.78658 1.53152
10.1779 -9.70816 1.52564
10.1779 -9.63033 1.51982
10.1779 -9.55309 1.51408
10.1779 -9.47643 1.5084
10.1779 -9.40033 1.50279
10.1779 -9.3248 1.49724
10.178 -9.24984 1.49176
10.178 -9.17541 1.48635
10.178 -9.10152 1.48099
10.178 -9.02816 1.4757
10.178 -8.95531 1.47047
10.1903 -8.89367 1.46706
10.2751 -8.89518 1.47411
10.3607 -8.89672 1.48126
10.4472 -8.89824 1.4885
10.5345 -8.8998 1.49583
10.6227 -8.90139 1.50326
10.7118 -8.90297 1.51078
10.8018 -8.90457 1.51842
10.8924 -8.90598 1.52611
10.9822 -8.906 1.53367
11.0729 -8.90602 1.54132
10.1781 -8.11914 1.41221
10.1781 -8.0524 1.40771
10.1781 -7.98609 1.40326
10.1781 -7.9202 1.39886
10.1781 -7.85473 1.39451
10.1781 -7.78965 1.39021
10.1781 -7.72498 1.38595
10.1781 -7.6607 1.38175
10.1782 -7.5968 1.3776
10.0011 -7.40227 1.3496
10.0012 -7.34023 1.34561
10.0763 -7.33324 1.35174
10.047 -7.25029 1.34389
10.0179 -7.1683 1.33614
9.98927 -7.08721 1.3285
9.96092 -7.00707 1.32098
9.93288 -6.92783 1.31355
9.91934 -6.85928 1.30811
9.91934 -6.80051 1.30449
9.91935 -6.74205 1.30092
9.91936 -6.68393 1.29738
9.91937 -6.62611 1.29389
9.91938 -6.56859 1.29044
9.91938 -6.51139 1.28702
9.91939 -6.45449 1.28365
9.9194 -6.39789 1.28031
9.91941 -6.34156 1.27701
9.91941 -6.28555 1.27375
9.91942 -6.2298 1.27052
9.91943 -6.17434 1.26733
9.92799 -6.12443 1.26527
9.94364 -6.07904 1.26414
9.95926 -6.03373 1.26303
9.97485 -5.98848 1.26195
9.99042 -5.94332 1.26088
10.006 -5.89826 1.25984
10.0215 -5.85324 1.25882
10.037 -5.8083 1.25783
10.0524 -5.76344 1.25685
10.0014 -5.68088 1.2476
10.0014 -5.62781 1.24477
8.31281 -4.63373 1.03228
8.28837 -4.57654 1.02696
8.26419 -4.51994 1.0217
8.24025 -4.46391 1.01651
8.21656 -4.40844 1.0114
8.1931 -4.35352 1.00635
8.16988 -4.29916 1.00136
8.14688 -4.24533 0.996445
8.12411 -4.19201 0.991591
8.10156 -4.13924 0.986799
8.11259 -4.10383 0.986126
8.12185 -4.0676 0.985257
8.10044 -4.01621 0.980692
8.07922 -3.96531 0.976186
8.07026 -3.92074 0.97319
8.07026 -3.88072 0.971301
8.07025 -3.84086 0.969435
8.07025 -3.80113 0.967591
8.07025 -3.76158 0.96577
8.07025 -3.72217 0.963972
8.07025 -3.68289 0.962196
8.07025 -3.64375 0.960441
8.07025 -3.60477 0.958709
8.07025 -3.56594 0.956998
8.07025 -3.52723 0.955309
8.07025 -3.48865 0.953641
8.07025 -3.45021 0.951994
8.07025 -3.41191 0.950369
8.07025 -3.37373 0.948764
8.07024 -3.33568 0.94718
8.07024 -3.29775 0.945616
8.07024 -3.25996 0.944073
8.07024 -3.22229 0.94255
8.07024 -3.18473 0.941046
8.07024 -3.1473 0.939564
8.07024 -3.10998 0.938101
8.07024 -3.07277 0.936657
8.07024 -3.03568 0.935233
8.07024 -2.99871 0.933828
8.07024 -2.96184 0.932443
8.07024 -2.92508 0.931077
8.07024 -2.88844 0.92973
8.07024 -2.85189 0.928401
8.07024 -2.81545 0.927092
8.07024 -2.7791 0.925801
8.07023 -2.74287 0.924528
8.07023 -2.70674 0.923275
8.07023 -2.67068 0.922039
8.07023 -2.63475 0.920821
8.07023 -2.59889 0.919621
8.07023 -2.56312 0.91844
8.07023 -2.52746 0.917276
8.07712 -2.494 0.916912
8.091 -2.46271 0.917357
8.1049 -2.43139 0.917818
8.11882 -2.40002 0.918293
8.13275 -2.36863 0.918784
8.14669 -2.33721 0.919291
8.16065 -2.30574 0.919812
8.17462 -2.27424 0.92035
8.18862 -2.24271 0.920902
8.20263 -2.21113 0.921471
8.21665 -2.17953 0.922055
8.23069 -2.14789 0.922655
8.24476 -2.11619 0.92327
8.25884 -2.08445 0.923901
8.27294 -2.05268 0.924548
8.28706 -2.02084 0.925211
8.30121 -1.98896 0.925889
8.31537 -1.95705 0.926584
8.32955 -1.92508 0.927295
8.34376 -1.89307 0.928022
8.39937 -1.87021 0.933363
8.46383 -1.84889 0.939692
8.52916 -1.82727 0.946123
8.59539 -1.80535 0.952657
8.66255 -1.78312 0.959299
8.73066 -1.76059 0.966049
8.79972 -1.73773 0.97291
8.86978 -1.71455 0.979886
8.93313 -1.68957 0.986126
8.93985 -1.65363 0.986126
8.98916 -1.62543 0.990836
9.06147 -1.6009 0.99809
9.13486 -1.57604 1.00547
9.22623 -1.55363 1.01483
9.45847 -1.55367 1.03968
9.70235 -1.55371 1.06579
9.95882 -1.55373 1.09327
10.179 -1.54619 1.11674
10.179 -1.50436 1.11607
10.179 -1.46256 1.11542
10.179 -1.42082 1.11478
10.179 -1.37914 1.11417
10.179 -1.33748 1.11357
10.179 -1.29588 1.11299
10.179 -1.25434 1.11243
10.179 -1.21281 1.11189
10.179 -1.17133 1.11137
10.179 -1.12988 1.11087
10.179 -1.08848 1.11038
10.179 -1.04711 1.10991
10.179 -1.00578 1.10946
10.179 -0.964473 1.10903
10.1791 -0.923203 1.10862
10.1791 -0.881973 1.10823
10.1791 -0.840742 1.10785
10.1791 -0.79957 1.10749
10.1791 -0.758398 1.10715
10.1791 -0.717266 1.10683
10.1791 -0.676152 1.10652
10.1791 -0.635078 1.10624
10.1791 -0.594004 1.10597
10.1791 -0.552949 1.10572
10.1791 -0.511934 1.10549
10.1791 -0.470918 1.10528
10.1791 -0.429902 1.10508
10.1791 -0.388926 1.1049
10.1791 -0.347949 1.10474
10.1791 -0.306992 1.1046
10.1791 -0.266035 1.10447
10.1791 -0.225098 1.10437
10.1792 -0.18416 1.10428
10.1792 -0.143223 1.10421
10.1792 -0.102305 1.10416
10.1792 -0.0613867 1.10412
10.1792 -0.0204687 1.1041
10.1792 0.0204687 1.1041
10.1792 0.0613867 1.10412
10.1792 0.102305 1.10416
10.1792 0.143223 1.10421
10.1792 0.18416 1.10428
10.1792 0.225098 1.10437
10.1792 0.266035 1.10448
10.1792 0.306992 1.10461
10.1792 0.347949 1.10475
10.1792 0.388926 1.10491
10.1792 0.429922 1.10509
10.1792 0.470918 1.10529
10.1792 0.511934 1.1055
10.1792 0.552969 1.10574
10.1793 0.594023 1.10599
10.1793 0.635078 1.10626
10.1793 0.676172 1.10654
10.1793 0.717285 1.10685
10.1793 0.758418 1.10717
10.1793 0.79959 1.10751
10.1793 0.840762 1.10787
10.1793 0.881992 1.10825
10.1793 0.923223 1.10865
10.1793 0.964492 1.10906
10.1793 1.0058 1.10949
10.1793 1.04715 1.10994
10.1793 1.08852 1.11041
10.1793 1.12992 1.1109
10.1793 1.17137 1.1114
10.1793 1.21285 1.11193
10.1793 1.25437 1.11247
10.1793 1.29594 1.11303
10.1794 1.33754 1.11361
10.1794 1.37918 1.11421
10.1794 1.42088 1.11483
10.1794 1.46262 1.11546
10.1794 1.50441 1.11612
85.5384 21.5891 9.56902
84.1127 21.5893 9.41916
82.7309 21.5895 9.27406
81.391 21.5897 9.13351
80.0911 21.5898 8.99731
78.8293 21.59 8.86524
78.6818 21.89 8.8585
78.6819 22.2312 8.86846
78.6819 22.5731 8.87864
78.682 22.9159 8.88897
78.682 23.2594 8.89947
78.6821 23.6038 8.91013
78.6821 23.949 8.92097
78.6821 24.295 8.93198
78.6822 24.6419 8.94315
78.6822 24.9897 8.95451
78.6823 25.3383 8.96603
78.6823 25.6879 8.97773
78.6824 26.0384 8.98961
78.6824 26.3898 9.00165
84.6161 31.4414 9.79115
83.2519 31.3159 9.64792
82.5772 31.4416 9.58417
81.2638 31.3161 9.4463
80.6227 31.4419 9.38635
79.357 31.3164 9.25362
78.747 31.4421 9.19711
77.5263 31.3166 9.06917
77.588 31.7049 9.09123
77.588 32.0695 9.10627
77.5881 32.4353 9.1215
77.5881 32.8024 9.13693
77.5882 33.1707 9.15257
70.8921 30.6456 8.37714
70.0818 30.6303 8.29587
70.0713 30.9617 8.30929
70.0713 31.2991 8.32415
70.0714 31.6376 8.3392
70.0714 31.9773 8.35443
70.0715 32.3183 8.36986
77.5886 36.1643 9.28505
64.7792 30.5114 7.76676
64.0764 30.4957 7.69714
63.5692 30.5684 7.65092
63.5191 30.8593 7.65975
22.6496 11.1166 2.73668
22.4214 11.1166 2.71447
22.1968 11.1166 2.69267
21.9757 11.1167 2.67126
21.7582 11.1167 2.65023
21.544 11.1167 2.62956
21.3332 11.1167 2.60926
21.1256 11.1168 2.58932
20.9211 11.1168 2.56971
20.7197 11.1168 2.55044
20.5213 11.1168 2.5315
20.3259 11.1169 2.51288
20.1332 11.1169 2.49457
19.9434 11.1169 2.47657
19.7563 11.1169 2.45886
19.5718 11.117 2.44144
19.3899 11.117 2.42431
19.2106 11.117 2.40746
19.0337 11.117 2.39087
18.8592 11.1171 2.37455
18.6872 11.1171 2.35849
18.5174 11.1171 2.34269
18.1947 11.0231 2.30745
18.0308 11.0231 2.29226
17.869 11.0231 2.27731
17.7093 11.0232 2.26258
17.5517 11.0232 2.24809
17.396 11.0232 2.23382
17.2424 11.0232 2.21975
17.0906 11.0232 2.20591
16.9408 11.0233 2.19226
16.7927 11.0233 2.17883
16.6465 11.0233 2.16558
16.502 11.0233 2.15254
16.3593 11.0233 2.13968
16.2183 11.0234 2.12701
6.51406 4.46592 0.856681
6.48175 4.48219 0.854776
6.46934 4.51215 0.855525
15.673 11.0253 2.07849
15.5941 11.0637 2.0739
15.5371 11.1175 2.07225
15.4059 11.1175 2.06069
15.2761 11.1175 2.0493
15.1596 11.1262 2.03965
15.1055 11.1802 2.03841
15.0515 11.2342 2.0372
15.0455 11.3242 2.04253
15.0455 11.4192 2.04874
15.0455 11.5148 2.05503
15.0455 11.6111 2.06139
15.0455 11.7079 2.06783
15.0424 11.8028 2.0739
14.9949 11.8632 2.0739
14.9587 11.9327 2.07552
14.9587 12.0314 2.08221
14.9587 12.1308 2.08899
14.9587 12.2308 2.09584
14.9588 12.3315 2.10277
14.9588 12.4328 2.10978
14.9588 12.5348 2.11687
14.9588 12.6376 2.12404
14.9588 12.741 2.1313
14.9588 12.8451 2.13864
14.9588 12.9499 2.14607
15.3451 13.3926 2.20919
15.3451 13.5017 2.21699
15.3451 13.6116 2.22488
15.3451 13.7222 2.23286
15.3452 13.8336 2.24094
15.3452 13.9459 2.24911
15.3452 14.0589 2.25738
15.3452 14.1728 2.26574
15.8655 14.772 2.35131
15.8655 14.8915 2.36017
15.8655 15.0119 2.36913
15.8655 15.1333 2.37819
15.8655 15.2556 2.38737
15.8656 15.3788 2.39666
15.8656 15.503 2.40605
15.8656 15.6282 2.41556
15.8656 15.7544 2.42519
15.8656 15.8816 2.43493
15.8656 16.0098 2.44479
15.8657 16.1391 2.45477
15.8657 16.2694 2.46487
15.8657 16.4008 2.4751
15.8657 16.5333 2.48545
15.8657 16.6669 2.49593
15.8657 16.8017 2.50654
15.8658 16.9376 2.51728
15.8658 17.0746 2.52815
15.8658 17.2129 2.53915
15.8658 17.3524 2.5503
15.8658 17.4931 2.56159
15.8658 17.635 2.57301
15.8659 17.7783 2.58459
15.8659 17.9228 2.59631
15.8472 18.0474 2.6051
15.7191 18.0474 2.59596
15.592 18.0474 2.58692
15.4658 18.0474 2.57799
15.3404 18.0474 2.56916
15.2159 18.0475 2.56044
15.1272 18.0894 2.55774
15.0599 18.1567 2.55868
15.0464 18.2896 2.56886
15.2056 18.6353 2.6088
15.2056 18.789 2.62174
15.2056 18.9442 2.63486
15.2056 19.101 2.64814
15.2057 19.2594 2.66161
15.2057 19.4195 2.67526
15.2057 19.5812 2.68909
15.1782 19.7088 2.69821
15.06 19.7188 2.69127
16.2487 21.4534 2.91908
16.2487 21.6335 2.93468
16.2487 21.8157 2.9505
16.2487 21.9997 2.96654
16.2487 22.1858 2.9828
16.2488 22.374 2.99929
16.2488 22.5642 3.01602
16.2084 22.7 3.02542
16.117 22.7649 3.02542
16.0253 22.8295 3.02542
15.9334 22.8938 3.02542
15.8413 22.9576 3.02542
15.7488 23.0211 3.02542
15.6562 23.0843 3.02542
15.5633 23.147 3.02542
15.4701 23.2094 3.02542
15.3767 23.2714 3.02542
15.3004 23.3595 3.02886
15.3004 23.5657 3.0476
15.3004 23.7745 3.06661
15.3004 23.9859 3.08592
15.3005 24.1999 3.10552
15.3005 24.4167 3.12542
15.3005 24.6363 3.14563
15.3005 24.8587 3.16616
15.3006 25.0841 3.187
15.3006 25.3125 3.20818
15.3006 25.544 3.22969
15.3007 25.7785 3.25155
15.3007 26.0163 3.27375
15.3007 26.2573 3.29632
15.3008 26.5017 3.31925
15.3008 26.7495 3.34256
15.3008 27.0008 3.36625
15.3009 27.2558 3.39033
15.3009 27.5144 3.41482
15.3009 27.7767 3.43972
15.301 28.043 3.46505
15.301 28.3131 3.4908
15.301 28.5874 3.517
15.3011 28.8657 3.54365
15.3011 29.1484 3.57077
15.3011 29.4354 3.59836
15.3012 29.7269 3.62644
15.3012 30.0229 3.65503
15.3013 30.3237 3.68412
15.3013 30.6293 3.71375
15.3013 30.9399 3.74392
15.3014 31.2555 3.77464
15.3014 31.5764 3.80593
15.3015 31.9027 3.83783
15.5029 32.6586 3.92122
15.5029 33.0005 3.95475
15.5029 33.3483 3.98893
15.503 33.7021 4.02377
15.503 34.0622 4.05929
15.5031 34.4287 4.09551
15.5031 34.8018 4.13244
15.5032 35.1818 4.17012
15.5032 35.5687 4.20856
15.5033 35.9628 4.24779
15.5033 36.3643 4.28782
15.5034 36.7735 4.32869
15.5034 37.1906 4.37041
15.5035 37.6158 4.41301
15.5036 38.0494 4.45653
15.5036 38.4916 4.50099
15.5037 38.9428 4.54642
15.5037 39.4031 4.59285
15.5038 39.873 4.64032
15.5039 40.3526 4.68885
23.7491 62.563 7.25847
15.4237 41.1286 4.76445
15.4237 41.6371 4.81614
15.4238 42.1568 4.86904
15.4238 42.6879 4.92318
15.4239 43.2311 4.97864
15.424 43.7866 5.03544
15.424 44.355 5.09363
15.4241 44.9367 5.15327
15.4242 45.5322 5.2144
15.4242 46.142 5.27709
15.4243 46.7665 5.34139
15.4244 47.4066 5.40737
15.4245 48.0626 5.47508
15.4313 48.7567 5.54703
13.4604 91.7149 10.0546
7.34591 94.7388 10.3069
6.56392 94.5064 10.2755
6.17427 94.3833 10.2593
5.80429 94.5626 10.2762
5.43319 94.7433 10.2934
5.01589 94.0816 10.2192
-2.48288 91.4801 9.9262
-2.84496 91.2887 9.90659
-3.20467 91.0698 9.88416
-3.57425 91.1461 9.89392
-3.93365 90.97 9.87643
-4.30417 91.0558 9.88755
-4.68879 91.4007 9.92697
-5.09539 92.0898 10.0039
-8.03229 83.875 9.13928
-8.35084 83.6565 9.11905
-8.60056 82.7896 9.02825
-8.96383 83.0368 9.05906
-2.532 22.6033 2.46704
-9.70366 83.5869 9.1273
-5.3402 40.3283 4.41245
-5.49668 40.2655 4.40796
-5.65289 40.2032 4.40359
-5.80884 40.1413 4.39933
-5.96454 40.0799 4.39519
-6.11999 40.0188 4.39116
-6.25804 39.8488 4.37524
-6.37917 39.5812 4.34864
-6.49894 39.3177 4.32252
-6.61744 39.058 4.29686
-6.73465 38.8021 4.27165
-6.85062 38.55 4.24689
-6.96541 38.3014 4.22256
-7.07901 38.0564 4.19865
-9.26843 44.7992 4.96212
-8.52082 40.3671 4.47497
-8.71586 40.4851 4.49189
-8.91249 40.6043 4.50906
-9.11067 40.7247 4.52647
-9.31047 40.8465 4.54412
-9.50297 40.9309 4.55772
-9.67574 40.9275 4.56164
-9.84889 40.9244 4.56567
-10.0224 40.9215 4.56981
-10.1963 40.9189 4.57406
-10.3705 40.9165 4.57841
-10.5453 40.9144 4.58288
-10.7203 40.9125 4.58746
-10.8958 40.9108 4.59214
-11.0666 40.8903 4.5948
-11.2261 40.8279 4.59283
-11.3854 40.7659 4.59096
-11.2379 39.6214 4.46712
-9.13061 31.7061 3.5788
-9.37787 32.0792 3.62515
-9.63127 32.4609 3.67262
-9.8915 32.8531 3.72147
-10.1588 33.2562 3.77172
-10.4337 33.6709 3.82349
-10.7163 34.0975 3.87679
-10.9482 34.3518 3.91067
-11.1406 34.4761 3.92989
-11.3146 34.5393 3.94225
-11.4783 34.5687 3.95084
-11.6421 34.5963 3.95931
-11.8066 34.6242 3.9679
-13.9978 40.5159 4.64951
-14.1454 40.416 4.64453
-14.2735 40.262 4.63339
-14.4116 40.1386 4.62582
-14.967 41.1644 4.75093
-15.1638 41.1893 4.76081
-15.3388 41.1537 4.76378
-13.283 35.2049 4.08131
-13.5085 35.3716 4.1069
-13.737 35.5407 4.13291
-13.9571 35.6826 4.15591
-14.1636 35.7861 4.17455
-14.3721 35.8906 4.19345
-14.554 35.9254 4.20432
-14.7256 35.9335 4.21216
-14.898 35.9417 4.2201
-15.0711 35.95 4.22816
-15.2449 35.9585 4.23633
-15.4194 35.9672 4.24462
-15.5922 35.9702 4.25234
-14.7939 33.7555 3.99754
-14.9242 33.6839 3.99614
-16.0889 35.9224 4.26932
-15.8903 35.0996 4.17911
-15.9275 34.8088 4.15207
-15.9462 34.4826 4.12078
-15.9532 34.1368 4.08708
-15.9602 33.797 4.05404
-15.9673 33.4629 4.02163
-16.8891 35.0318 4.21832
-15.6795 32.1913 3.88385
-15.9517 32.4183 3.91894
-16.2289 32.6499 3.95478
-16.4734 32.81 3.98217
-16.6544 32.8407 3.99399
-16.8367 32.8719 4.00597
-17.0201 32.9034 4.01812
-17.2048 32.9353 4.03044
-17.3908 32.9677 4.04292
-17.578 33.0005 4.05557
-17.7666 33.0337 4.06841
-17.9564 33.0674 4.08141
-18.1477 33.1016 4.0946
-19.0337 34.389 4.26329
-19.189 34.3431 4.26712
-18.7164 33.1833 4.13233
-18.9461 33.2771 4.15346
-19.1782 33.3721 4.17491
-19.4046 33.454 4.19488
-19.6284 33.5286 4.21409
-19.4078 32.8485 4.13838
-19.4357 32.5958 4.11636
-19.5615 32.5089 4.11528
-19.7086 32.4573 4.11874
-19.9611 32.5773 4.14411
-27.8804 45.0938 5.75054
-20.9136 33.5235 4.28574
-21.1762 33.6425 4.3118
-21.3787 33.6632 4.32544
-18.5753 28.991 3.73465
-18.0079 27.8583 3.59803
-31.1207 47.7217 6.1796
-31.3737 47.6895 6.19172
-34.9059 52.5973 6.84707
-35.3371 52.785 6.88995
-35.6436 52.7827 6.9083
-35.9519 52.7806 6.92687
-36.2344 52.7382 6.94038
-11.8167 16.7622 2.22451
-11.8062 16.6052 2.20995
-11.8483 16.5233 2.20537
-11.9163 16.4778 2.20568
-11.9843 16.4324 2.20602
-12.0523 16.3869 2.2064
-12.1739 16.4136 2.21657
-12.3366 16.4939 2.2341
-23.1281 30.1568 4.12223
-23.1541 29.9408 4.10538
-23.2698 29.8416 4.10458
-23.4188 29.7851 4.10972
-18.5117 22.5941 3.16822
-18.5475 22.4532 3.15889
-18.5832 22.3131 3.14966
-18.7024 22.2734 3.15465
-18.8262 22.2387 3.16043
-33.9381 39.7647 5.67046
-34.2759 39.8351 5.70009
-28.6872 33.0701 4.74856
-28.6848 32.8 4.7263
-28.6542 32.5004 4.69969
-28.8598 32.4695 4.71196
-28.8406 32.1864 4.68767
-29.0868 32.1998 4.70661
-29.197 32.0617 4.70354
-29.383 32.0066 4.71275
-25.6089 27.6715 4.08953
-25.6957 27.5423 4.08568
-25.7825 27.4136 4.08192
-25.8692 27.2852 4.07826
-25.956 27.1572 4.07469
-26.0058 26.9912 4.06544
-26.0367 26.8068 4.05339
-26.0675 26.6236 4.0415
-26.0984 26.4416 4.02977
-27.8421 27.7583 4.26442
-27.8577 27.5515 4.24981
-26.2985 25.801 3.99608
-26.1934 25.4921 3.96451
-25.848 24.9544 3.89702
-25.6984 24.6112 3.85953
-25.7908 24.5017 3.85858
-25.8833 24.3923 3.85771
-25.9758 24.2831 3.85691
-26.0683 24.1739 3.85619
-26.1609 24.0649 3.85555
-26.2535 23.956 3.85498
-26.3462 23.8472 3.85448
-26.4356 23.7356 3.85357
-26.5801 23.6729 3.86073
-26.7246 23.6096 3.86789
-26.8626 23.54 3.87414
-27.0012 23.4702 3.88049
-27.1403 23.4002 3.88693
-27.2799 23.3301 3.89347
-29.0168 24.6143 4.12721
-33.0172 27.7802 4.68028
-33.0174 27.5544 4.66456
-33.4679 27.7029 4.71244
-33.3933 27.4157 4.68638
-33.6366 27.3898 4.70503
-33.7209 27.2337 4.70147
-33.9465 27.1912 4.71764
-31.3941 24.9403 4.34897
-34.4117 27.1126 4.75185
-34.6449 27.0713 4.76899
-34.8552 27.0107 4.78295
-35.0669 26.9497 4.79709
-34.5112 26.0841 4.69224
-34.7694 26.0602 4.71306
-35.03 26.0363 4.73416
-35.2931 26.0123 4.75555
-35.5589 25.9882 4.77724
-35.8262 25.9633 4.7991
-36.012 25.8778 4.81001
-29.1487 20.2433 3.84932
-28.7164 19.7724 3.7817
-27.4299 18.7245 3.60233
-27.5553 18.6481 3.60893
-27.6814 18.5717 3.61564
-27.8081 18.495 3.62244
-27.9354 18.4181 3.62936
-28.0479 18.3309 3.63436
-28.1202 18.2173 3.63421
-28.1926 18.1037 3.63414
-28.2652 17.9903 3.63414
-28.3378 17.8769 3.63422
-28.4107 17.7636 3.63437
-28.4837 17.6503 3.6346
-28.5567 17.5371 3.6349
-28.63 17.424 3.63528
-28.7034 17.3109 3.63573
-29.6569 17.7238 3.74745
-29.8106 17.6534 3.75788
-29.9653 17.5827 3.76844
-30.1103 17.5054 3.77779
-30.0433 17.3053 3.76063
-30.3397 17.3139 3.78899
-29.4815 16.6675 3.67342
-29.6234 16.5909 3.68276
-29.7662 16.514 3.69222
-29.9098 16.4368 3.70182
-30.0544 16.3593 3.71154
-30.1999 16.2814 3.72139
-30.3463 16.2033 3.73138
-30.4937 16.1248 3.7415
-30.642 16.0459 3.75176
-30.7574 15.9491 3.758
-30.8429 15.8365 3.76064
-17.629 8.87334 2.14072
-17.658 8.79914 2.13993
-17.6678 8.71557 2.13686
-17.6777 8.63229 2.13384
-17.6877 8.54926 2.13088
-17.6977 8.46648 2.12796
-17.7077 8.38398 2.1251
-17.7178 8.30176 2.12229
-17.728 8.21975 2.11953
-17.7382 8.13803 2.11683
-11.729 5.21086 1.3921
-11.6983 5.14105 1.386
-11.668 5.07184 1.37998
-11.6379 5.00322 1.37403
-11.6134 4.9375 1.36879
-11.6444 4.89547 1.3701
-11.6754 4.85338 1.37144
-11.7064 4.81119 1.37281
-11.7376 4.76893 1.3742
-11.7688 4.72656 1.37562
-11.8686 4.71133 1.38506
-12.0656 4.7335 1.40582
-25.5837 9.91816 2.97621
-25.1864 9.64785 2.92546
-24.8029 9.3868 2.8765
-26.4141 9.87535 3.05874
-20.7012 7.64477 2.39361
-20.314 7.40914 2.34538
-19.9427 7.18301 2.29916
-24.9938 8.88898 2.87734
-19.4645 6.83445 2.23762
-19.1579 6.64043 2.19928
-19.1498 6.55152 2.19532
-19.1373 6.46143 2.19089
-19.1249 6.37172 2.18651
-19.1126 6.28236 2.1822
-19.1004 6.19338 2.17795
-19.0883 6.10477 2.17375
-19.0762 6.01648 2.16961
-18.8239 5.85379 2.13822
-18.3287 5.61914 2.07939
-18.3591 5.54779 2.08028
-18.3895 5.47641 2.08122
-18.4201 5.40498 2.0822
-18.4507 5.33352 2.08322
-18.4815 5.26201 2.08429
-18.5123 5.19043 2.0854
-18.5433 5.11881 2.08656
-18.5744 5.04711 2.08776
-18.6056 4.97535 2.089
-18.6338 4.90275 2.08994
-18.5675 4.80555 2.08032
-18.5019 4.70932 2.07083
-18.437 4.61395 2.06147
-18.6876 4.59689 2.08741
-18.7012 4.52061 2.08688
-18.7148 4.44436 2.08639
-18.7286 4.36814 2.08595
-18.7423 4.29199 2.08554
-18.755 4.21562 2.08505
-18.728 4.13053 2.08019
-18.7013 4.04588 2.07539
-18.6831 3.9634 2.0716
-18.7828 3.9057 2.08089
-18.8264 3.83588 2.08399
-18.8406 3.75996 2.08388
-18.855 3.68406 2.08381
-19.1922 3.6699 2.11943
-19.2973 3.60967 2.12941
-19.4035 3.54889 2.13955
-19.5016 3.48584 2.1488
-19.5767 3.41812 2.15555
-19.6524 3.34998 2.16238
-19.7287 3.28143 2.1693
-19.8055 3.21244 2.17632
-19.883 3.14303 2.18342
-19.9611 3.07316 2.19062
-20.0398 3.00289 2.19792
-20.1191 2.93211 2.20531
-18.3407 2.52252 2.00808
-16.5646 2.21043 1.81263
-18.3719 2.37648 2.00935
-18.3879 2.30344 2.01007
-18.4042 2.23035 2.01085
-18.4208 2.15727 2.01169
-18.4375 2.08412 2.0126
-18.4546 2.01094 2.01356
-18.4719 1.93773 2.01458
-18.4895 1.86447 2.01566
-18.5073 1.79113 2.01681
-18.5254 1.71775 2.01801
-18.5438 1.64432 2.01928
-18.5625 1.57076 2.02061
-18.5814 1.49717 2.02199
-18.6006 1.42348 2.02344
-18.6201 1.34969 2.02496
-18.6398 1.27584 2.02653
-18.6598 1.20187 2.02817
-18.6802 1.12777 2.02986
-18.7008 1.05359 2.03163
-18.6958 0.97793 2.03065
-18.6605 0.900879 2.0264
-18.6255 0.824141 2.02222
-18.5907 0.747754 2.01811
-39.6072 -0.318418 3.85262
-39.4967 -0.476309 3.84203
-39.3433 -0.632656 3.82733
-38.9418 -0.782793 3.78854
-39.1165 -1.5733 3.80785
-38.6213 -1.70889 3.76027
-38.674 -1.86703 3.76611
-38.5775 -2.01785 3.75747
-19.7846 -1.11463 1.92746
-19.6843 -1.18836 1.91813
-19.6015 -1.26248 1.91054
-19.6104 -1.34223 1.91192
-19.6193 -1.42211 1.91333
-19.6282 -1.50211 1.91477
-19.755 -1.5917 1.92775
-38.3997 -3.24936 3.74839
-38.7742 -3.43811 3.78627
-28.9443 -3.62576 2.83735
-28.8067 -3.72621 2.82531
-28.6705 -3.82584 2.81344
-28.5357 -3.92467 2.80173
-28.4023 -4.02271 2.7902
-28.2703 -4.12 2.77883
-28.1395 -4.21652 2.76762
-28.01 -4.31232 2.75657
-27.8817 -4.4074 2.74567
-27.7547 -4.50176 2.73492
-27.6289 -4.59541 2.72432
-27.5043 -4.68838 2.71388
-26.8692 -4.69137 2.65305
-24.9315 -4.45637 2.46346
-29.7637 -5.44379 2.94307
-22.2885 -4.54133 2.21249
-22.2247 -4.62148 2.20799
-22.1612 -4.70129 2.20354
-22.1816 -4.79885 2.20746
-22.222 -4.90119 2.21342
-23.5231 -5.28734 2.34513
-23.3025 -5.33623 2.32526
-23.0857 -5.38436 2.30577
-22.8727 -5.4317 2.28665
-22.6633 -5.47832 2.2679
-22.4575 -5.52422 2.24951
-22.2551 -5.56939 2.23146
-21.9408 -5.58455 2.20218
-21.5756 -5.58406 2.16776
-21.222 -5.58367 2.13447
-20.2358 -5.41123 2.03745
-20.3252 -5.52279 2.04867
-20.4159 -5.63566 2.06008
-20.4635 -5.73744 2.0672
-20.4629 -5.82607 2.06948
-20.4623 -5.91492 2.0718
-20.4617 -6.00402 2.07418
-20.4613 -6.09334 2.0766
-20.461 -6.18289 2.07907
-20.4607 -6.27268 2.08159
-20.4605 -6.3627 2.08416
-20.4603 -6.45297 2.08677
-20.4603 -6.54352 2.08943
-20.4603 -6.6343 2.09214
-20.4604 -6.72535 2.0949
-13.0334 -4.34229 1.33624
-13.0115 -4.39316 1.33579
-12.9896 -4.444 1.33536
-12.9618 -4.49279 1.33435
-12.9228 -4.53756 1.33221
-12.884 -4.58219 1.33009
-12.8454 -4.62668 1.32801
-12.8069 -4.67105 1.32596
-12.7686 -4.71535 1.32395
-12.7304 -4.75949 1.32197
-12.6924 -4.80353 1.32002
-12.6546 -4.84746 1.3181
-12.6169 -4.89129 1.31621
-12.5794 -4.935 1.31436
-12.5421 -4.97861 1.31253
-12.5048 -5.02211 1.31074
-12.4678 -5.06555 1.30898
-12.4309 -5.10885 1.30725
-12.3941 -5.15207 1.30555
-12.3575 -5.1952 1.30388
-12.321 -5.23824 1.30224
-12.2846 -5.28119 1.30063
-12.2484 -5.32406 1.29905
-20.1273 -8.84514 2.13844
-20.108 -8.93328 2.1402
-20.7319 -9.31041 2.21056
-20.7542 -9.42086 2.21696
-20.7767 -9.53201 2.22344
-20.7995 -9.64385 2.23001
-20.8224 -9.75637 2.23665
-20.8456 -9.86965 2.24339
-20.8691 -9.98363 2.25021
-25.5822 -12.3651 2.76374
-25.5929 -12.4974 2.7703
-25.5731 -12.6153 2.77363
-25.5534 -12.7336 2.77702
-25.5338 -12.8522 2.78048
-33.7287 -17.1472 3.68033
-33.7743 -17.3416 3.69289
-33.779 -17.5159 3.70107
-20.8395 -10.9127 2.28811
-21.161 -11.1897 2.32833
-21.3638 -11.4071 2.35568
-21.4996 -11.5909 2.37577
-21.6382 -11.7781 2.39629
-21.7796 -11.9688 2.41726
-21.924 -12.1632 2.4387
-22.0714 -12.3613 2.46061
-22.222 -12.5633 2.483
-22.3758 -12.7692 2.50591
-22.533 -12.9792 2.52933
-22.6936 -13.1935 2.5533
-22.8501 -13.4077 2.57694
-22.8423 -13.5268 2.58217
-22.8346 -13.6466 2.58749
-22.8271 -13.767 2.59289
-22.8197 -13.8879 2.59837
-22.8125 -14.0095 2.60393
-22.8053 -14.1316 2.60958
-22.7983 -14.2545 2.61532
-22.7914 -14.3779 2.62114
-17.2399 -10.9729 1.98774
-22.7781 -14.6268 2.63304
-22.7716 -14.7523 2.63913
-22.7653 -14.8785 2.64531
-33.0727 -21.8053 3.85317
-28.7879 -19.1467 3.3629
-28.6556 -19.2253 3.35645
-23.5885 -15.9637 2.77044
-23.4877 -16.0334 2.76614
-23.3873 -16.1031 2.76192
-23.2873 -16.1727 2.75777
-23.1878 -16.2421 2.75369
-23.0846 -16.3085 2.74919
-22.9117 -16.3249 2.7364
-22.7406 -16.3412 2.72379
-22.5712 -16.3575 2.71136
-22.4036 -16.3737 2.69911
-22.2376 -16.3899 2.68702
-22.0732 -16.4062 2.67511
-22.9525 -17.3479 2.79848
-22.7948 -17.3731 2.78775
-22.6384 -17.3982 2.77715
-22.4553 -17.4015 2.76325
-22.2671 -17.3994 2.74868
-22.081 -17.3974 2.73432
-21.8969 -17.3955 2.72016
-15.6587 -12.5426 1.95145
-15.5337 -12.5454 1.94214
-15.4786 -12.604 1.94157
-15.4235 -12.6626 1.94104
-11.8199 -9.78387 1.49246
-11.7588 -9.81322 1.48971
-11.6979 -9.84248 1.487
-11.6373 -9.8716 1.48432
-11.5979 -9.91869 1.48438
-11.5922 -9.99479 1.48878
-11.5865 -10.0713 1.49323
-11.5807 -10.1483 1.49773
-20.5991 -18.1982 2.67354
-20.5929 -18.3406 2.68228
-19.4723 -17.4835 2.54544
-19.6762 -17.8099 2.58144
-16.7316 -15.2674 2.20315
-16.5918 -15.2625 2.1928
-16.5403 -15.3383 2.19412
-16.4887 -15.4142 2.19547
-16.5232 -15.5714 2.20839
-20.2312 -19.2201 2.7143
-20.2234 -19.3679 2.72367
-20.0985 -19.4037 2.71733
-20.0715 -19.5342 2.72428
-20.0445 -19.6654 2.73132
-20.0174 -19.7974 2.73845
-19.9903 -19.9301 2.74568
-19.963 -20.0637 2.753
-18.6582 -18.9037 2.58352
-19.9084 -20.3332 2.76792
-19.881 -20.4691 2.77553
-19.8536 -20.6059 2.78323
-19.826 -20.7436 2.79104
-19.7984 -20.8821 2.79895
-19.7607 -21.0108 2.80553
-19.695 -21.1104 2.80823
-19.6293 -21.2103 2.811
-19.5635 -21.3104 2.81382
-26.6442 -29.2586 3.84912
-26.642 -29.4935 3.8659
-26.5878 -29.6724 3.87531
-26.498 -29.8124 3.87966
-26.4083 -29.9532 3.88413
-26.3187 -30.0945 3.88871
-26.2291 -30.2366 3.8934
-26.1397 -30.3793 3.89822
-26.0503 -30.5227 3.90316
-25.961 -30.6669 3.90821
-25.8632 -30.8017 3.91211
-25.7374 -30.9032 3.91184
-24.0298 -29.09 3.67005
-24.0995 -29.4143 3.69872
-24.1707 -29.7443 3.72797
-24.2435 -30.0802 3.75782
-24.2615 -30.3515 3.77949
-24.2268 -30.5591 3.79319
-24.1921 -30.7686 3.80709
-24.1573 -30.9798 3.82118
-24.0756 -31.1323 3.82802
-23.9571 -31.2379 3.82912
-23.8387 -31.3436 3.8303
-23.7203 -31.4494 3.83156
-23.581 -31.5276 3.8295
-23.4406 -31.604 3.82731
-23.3005 -31.6805 3.82519
-23.3023 -31.9513 3.84654
-20.8709 -28.8604 3.4643
-21.3489 -29.7727 3.56348
-21.795 -30.6542 3.65848
-21.8353 -30.9738 3.68612
-21.8764 -31.2986 3.71427
-21.8993 -31.6011 3.7397
-21.8103 -31.7445 3.74626
-21.7211 -31.8885 3.75292
-21.6316 -32.0331 3.75968
-21.5419 -32.1784 3.76653
-21.4292 -32.2902 3.7695
-21.3165 -32.4023 3.77255
-21.2036 -32.5146 3.77568
-21.0906 -32.6273 3.77888
-21.086 -32.9096 3.80173
-20.9 -32.9097 3.79201
-20.6924 -32.8742 3.7783
-20.4864 -32.839 3.76476
-20.282 -32.8043 3.7514
-20.0791 -32.7699 3.73821
-19.8777 -32.7358 3.72518
-19.6778 -32.7022 3.71232
-19.4792 -32.6688 3.69961
-19.2592 -32.597 3.68268
-19.0364 -32.5177 3.66505
-18.7898 -32.3944 3.64261
-18.5077 -32.2057 3.61299
-18.2303 -32.0202 3.58393
-17.9573 -31.8378 3.55541
-17.6888 -31.6585 3.52741
-26.1818 -47.3042 5.25891
-25.8312 -47.1168 5.22648
-25.8033 -47.9771 5.29873
-25.6475 -48.1504 5.30644
-25.4569 -48.259 5.30709
-25.2323 -48.3028 5.30071
-25.0083 -48.3466 5.29444
-24.7849 -48.3905 5.2883
-24.3622 -48.0401 5.23927
-23.972 -47.7456 5.19659
-23.8174 -47.9169 5.20477
-23.6623 -48.089 5.21309
-23.4983 -48.2444 5.21964
-23.3057 -48.3416 5.21999
-23.0949 -48.4008 5.21632
-22.8845 -48.4601 5.21275
-22.6745 -48.5196 5.2093
-22.4114 -48.4637 5.19359
-22.1173 -48.3368 5.17042
-21.8261 -48.2115 5.14759
-21.5226 -48.0544 5.12154
-21.1098 -47.6453 5.06885
-21.9514 -50.0875 5.31924
-22.1957 -51.2038 5.42827
-22.5084 -52.5025 5.55631
-20.8834 -50.3813 5.30479
-20.7189 -50.558 5.31458
-19.4576 -48.0296 5.04053
-19.605 -48.9579 5.12965
-19.1084 -48.2795 5.05047
-18.6387 -47.6515 4.9769
-18.1957 -47.0758 4.9091
-18.0365 -47.2278 4.91734
-17.8655 -47.3502 4.92257
-17.6942 -47.4731 4.92791
-17.5226 -47.5965 4.93337
-17.3507 -47.7205 4.93895
-17.1785 -47.845 4.94465
-17.006 -47.97 4.95046
-17.1323 -48.9502 5.04447
-16.6735 -48.2604 4.96644
-16.5135 -48.4271 4.97673
-16.3525 -48.5938 4.98705
-16.191 -48.7613 4.99753
-16.0288 -48.9298 5.00815
-15.866 -49.0991 5.01892
-15.7026 -49.2694 5.02983
-2.81683 -9.49369 0.963219
-2.77385 -9.48853 0.961516
-2.74093 -9.51783 0.963401
-2.6773 -45.1002 4.39457
10.6974 -52.2344 5.18618
10.822 -51.7825 5.14559
10.888 -51.0726 5.07935
10.9151 -50.2088 4.99777
10.9924 -49.6029 4.94182
11.0166 -48.7831 4.86452
11.0401 -47.9886 4.78968
11.0322 -47.087 4.70408
11.0827 -46.461 4.64595
11.1561 -45.9493 4.59923
11.177 -45.2415 4.53285
11.3328 -45.0928 4.52248
11.5272 -45.0986 4.52767
6.55945 -25.2396 2.53655
11.9174 -45.1101 4.5383
12.1131 -45.1159 4.54374
12.3093 -45.1217 4.54928
12.506 -45.1276 4.5549
12.7033 -45.1334 4.5606
12.901 -45.1393 4.5664
13.0992 -45.1451 4.57228
13.2979 -45.151 4.57825
13.4971 -45.1569 4.58432
13.6969 -45.1628 4.59047
13.8972 -45.1688 4.59671
14.0981 -45.1747 4.60305
14.2995 -45.1806 4.60947
14.5015 -45.1866 4.61599
14.7041 -45.1926 4.62261
14.9072 -45.1986 4.62932
15.111 -45.2047 4.63612
15.3153 -45.2107 4.64301
15.5065 -45.1773 4.64595
15.6941 -45.1317 4.64771
15.9 -45.1378 4.65488
16.1064 -45.1439 4.66215
16.3135 -45.15 4.66952
16.5212 -45.1562 4.67698
16.7296 -45.1623 4.68455
16.9387 -45.1685 4.69222
17.1485 -45.1747 4.69998
17.359 -45.181 4.70786
17.5702 -45.1872 4.71583
17.7821 -45.1935 4.7239
17.9947 -45.1998 4.73209
18.2222 -45.2411 4.74404
18.4365 -45.2475 4.75244
18.6516 -45.2538 4.76095
18.8674 -45.2602 4.76956
19.084 -45.2666 4.77828
19.3014 -45.2731 4.78711
19.5197 -45.2795 4.79605
19.7387 -45.286 4.80511
19.9586 -45.2925 4.81427
20.1793 -45.299 4.82355
20.4009 -45.3056 4.83294
20.6234 -45.3122 4.84245
20.8467 -45.3188 4.85207
21.0709 -45.3254 4.86181
21.296 -45.3321 4.87167
21.5221 -45.3388 4.88165
21.7491 -45.3455 4.89175
21.977 -45.3522 4.90196
22.4906 -45.9407 4.97529
22.499 -45.4937 4.93665
22.6445 -45.3283 4.92854
22.8748 -45.3326 4.93897
23.1061 -45.337 4.94952
23.3384 -45.3413 4.96019
23.5717 -45.3457 4.971
23.806 -45.3501 4.98193
24.0414 -45.3545 4.99299
24.2457 -45.299 4.99757
24.4829 -45.3034 5.00888
24.7212 -45.3078 5.02031
10.1768 -18.4745 2.05157
10.1768 -18.3001 2.03673
9.9998 -17.8129 1.98696
10.0494 -17.7339 1.98265
9.96389 -17.4193 1.95194
9.918 -17.1785 1.9294
9.91803 -17.0201 1.91608
9.91805 -16.864 1.90297
9.91807 -16.7099 1.89007
9.91809 -16.5579 1.87738
9.94911 -16.4593 1.87071
8.71293 -14.2842 1.62746
8.69015 -14.1188 1.61259
8.66783 -13.9566 1.59803
8.64597 -13.7973 1.58376
8.62456 -13.641 1.56978
8.60357 -13.4874 1.55608
8.58299 -13.3366 1.54265
8.56282 -13.1885 1.52948
8.54304 -13.0429 1.51657
8.52364 -12.8999 1.50391
8.54961 -12.8268 1.49938
8.57563 -12.7544 1.49494
8.60152 -12.6825 1.49055
8.62729 -12.6111 1.48622
8.65294 -12.5401 1.48194
8.69793 -12.4975 1.48103
8.759 -12.478 1.48288
8.82026 -12.4584 1.48476
8.88168 -12.4389 1.48667
8.94328 -12.4193 1.48861
9.00507 -12.3997 1.49059
9.06705 -12.38 1.4926
9.1292 -12.3604 1.49464
9.19156 -12.3406 1.49671
9.26999 -12.3421 1.50139
9.35189 -12.3474 1.5066
9.43438 -12.3529 1.51188
9.51748 -12.3583 1.51722
9.60119 -12.3639 1.52263
9.68554 -12.3696 1.52811
9.76829 -12.3725 1.53331
9.84251 -12.3639 1.53714
9.91712 -12.3554 1.54103
9.99213 -12.3469 1.54496
10.0676 -12.3383 1.54894
10.1434 -12.3297 1.55297
10.1776 -12.2704 1.55064
10.1776 -12.1705 1.54317
10.1776 -12.0716 1.5358
10.1776 -11.9736 1.52853
10.1776 -11.8765 1.52135
10.1776 -11.7804 1.51426
10.1776 -11.6851 1.50726
10.1777 -11.5907 1.50035
10.1777 -11.4971 1.49352
10.1777 -11.4045 1.48679
10.1777 -11.3126 1.48013
10.1777 -11.2216 1.47356
10.1777 -11.1313 1.46707
10.1777 -11.0419 1.46066
10.1777 -10.9532 1.45434
10.1777 -10.8653 1.44808
10.1778 -10.7781 1.44191
10.1778 -10.6917 1.43581
10.1778 -10.606 1.42979
10.1778 -10.5211 1.42383
10.1778 -10.4368 1.41796
10.1778 -10.3532 1.41215
10.1778 -10.2703 1.40641
10.1778 -10.1881 1.40074
10.1778 -10.1065 1.39514
10.1779 -10.0256 1.3896
10.1779 -9.94527 1.38414
10.1779 -9.86562 1.37873
10.1779 -9.78658 1.37339
10.1779 -9.70816 1.36812
10.1779 -9.63033 1.3629
10.1779 -9.55309 1.35775
10.1779 -9.47643 1.35266
10.1779 -9.40033 1.34763
10.1779 -9.3248 1.34266
10.178 -9.24984 1.33774
10.178 -9.17541 1.33288
10.178 -9.10152 1.32808
10.178 -9.02816 1.32334
10.178 -8.95531 1.31865
10.1903 -8.89367 1.31559
10.2751 -8.89518 1.32192
10.3607 -8.89672 1.32832
10.4472 -8.89824 1.33481
10.5345 -8.8998 1.34139
10.6227 -8.90139 1.34805
10.7118 -8.90297 1.3548
10.8018 -8.90457 1.36164
10.8924 -8.90598 1.36854
10.9822 -8.906 1.37532
11.0729 -8.90602 1.38218
10.1781 -8.11914 1.2664
10.1781 -8.0524 1.26236
10.1781 -7.98609 1.25837
10.1781 -7.92021 1.25443
10.1781 -7.85473 1.25053
10.1781 -7.78965 1.24667
10.1781 -7.72498 1.24286
10.1781 -7.6607 1.23909
9.88451 -7.37762 1.19972
9.904 -7.33037 1.1985
10.0012 -7.34023 1.20667
10.0763 -7.33324 1.21218
10.047 -7.25029 1.20513
10.0179 -7.16828 1.19819
9.98927 -7.08721 1.19134
9.96092 -7.00707 1.18459
9.93288 -6.92783 1.17793
9.91934 -6.85928 1.17305
9.91934 -6.80051 1.16981
9.91935 -6.74205 1.1666
9.91936 -6.68393 1.16343
9.91937 -6.62611 1.1603
9.91938 -6.56859 1.1572
9.91938 -6.51139 1.15414
9.91939 -6.45449 1.15111
9.9194 -6.39789 1.14812
9.91941 -6.34156 1.14516
9.91941 -6.28555 1.14224
9.91942 -6.2298 1.13934
9.91943 -6.17434 1.13648
9.92799 -6.12443 1.13463
9.94364 -6.07904 1.13362
9.95926 -6.03371 1.13263
9.97485 -5.98848 1.13165
9.99042 -5.94332 1.1307
10.006 -5.89826 1.12977
10.0215 -5.85324 1.12885
10.037 -5.8083 1.12796
10.0524 -5.76344 1.12708
10.0014 -5.68086 1.11879
10.0014 -5.62781 1.11625
10.0335 -5.59289 1.11732
10.1291 -5.59289 1.12545
8.32405 -4.55268 0.922849
8.3007 -4.49664 0.918248
8.27758 -4.44117 0.913708
8.25468 -4.38625 0.909227
8.23201 -4.33186 0.904804
8.20955 -4.27799 0.900439
8.18732 -4.22463 0.89613
8.16529 -4.17178 0.891876
8.14347 -4.11945 0.887677
8.12186 -4.0676 0.883531
8.10044 -4.01621 0.879438
8.07922 -3.96531 0.875397
8.07026 -3.92074 0.872711
8.07026 -3.88072 0.871017
8.07025 -3.84086 0.869343
8.07025 -3.80113 0.86769
8.07025 -3.76156 0.866057
8.07025 -3.72215 0.864444
8.07025 -3.68289 0.862851
8.07025 -3.64375 0.861278
8.07025 -3.60477 0.859725
8.07025 -3.56594 0.85819
8.07025 -3.52723 0.856675
8.07025 -3.48865 0.85518
8.07025 -3.45021 0.853703
8.07025 -3.41189 0.852245
8.07025 -3.37373 0.850806
8.07024 -3.33568 0.849385
8.07024 -3.29775 0.847983
8.07024 -3.25996 0.846599
8.07024 -3.22229 0.845233
8.0766 -3.18723 0.84455
8.08935 -3.15473 0.84455
8.10196 -3.12219 0.84455
8.11445 -3.08959 0.844551
8.1268 -3.05693 0.84455
8.13903 -3.02426 0.844551
8.15113 -2.99152 0.844551
8.16309 -2.95873 0.844552
8.17492 -2.92588 0.844552
8.18662 -2.89301 0.844553
8.19819 -2.86008 0.844553
8.20962 -2.82711 0.844554
8.22093 -2.79408 0.844554
8.2321 -2.76102 0.844554
8.24313 -2.72791 0.844555
8.25404 -2.69475 0.844555
8.26481 -2.66154 0.844555
8.27544 -2.6283 0.844556
8.28594 -2.595 0.844556
8.29631 -2.56166 0.844557
8.30655 -2.5283 0.844557
8.31664 -2.49488 0.844557
8.32661 -2.46145 0.844557
8.33644 -2.42795 0.844558
8.34613 -2.39441 0.844558
8.35569 -2.36086 0.844558
8.36512 -2.32725 0.844558
8.37441 -2.29361 0.844558
8.38356 -2.25992 0.844559
8.39258 -2.22621 0.844559
8.40146 -2.19244 0.844559
8.41021 -2.15865 0.844559
8.41882 -2.12482 0.844559
8.4273 -2.09096 0.844559
8.43563 -2.05707 0.844559
8.44383 -2.02314 0.844559
8.4519 -1.98918 0.844559
8.45983 -1.9552 0.844559
8.46762 -1.92115 0.844559
8.47526 -1.88711 0.844558
8.48272 -1.85301 0.844552
8.52919 -1.82729 0.848441
8.59543 -1.80535 0.854302
8.6626 -1.78314 0.860258
8.73071 -1.76061 0.866312
8.79978 -1.73773 0.872465
8.86985 -1.71457 0.878722
8.94093 -1.69104 0.885083
9.01304 -1.66719 0.891551
9.08622 -1.64297 0.898129
9.16049 -1.6184 0.904819
9.28769 -1.6024 0.91674
9.51786 -1.60273 0.938815
9.75946 -1.60311 0.962003
10.0133 -1.6035 0.98638
10.0666 -1.57055 0.991004
10.179 -1.54619 1.00144
10.179 -1.50436 1.00084
10.179 -1.46256 1.00025
10.179 -1.42082 0.999686
10.179 -1.37914 0.999134
10.179 -1.33748 0.998599
10.179 -1.29588 0.99808
10.179 -1.25434 0.997578
10.179 -1.21281 0.997093
10.179 -1.17133 0.996624
10.179 -1.12988 0.996171
10.179 -1.08848 0.995736
10.179 -1.04711 0.995317
10.179 -1.00578 0.994913
10.179 -0.964473 0.994527
10.1791 -0.923203 0.994157
10.1791 -0.881973 0.993803
10.1791 -0.840742 0.993466
10.1791 -0.79957 0.993144
10.1791 -0.758418 0.99284
10.1791 -0.717266 0.992551
10.1791 -0.676152 0.992278
10.1791 -0.635078 0.992022
10.1791 -0.594004 0.991782
10.1791 -0.552949 0.991558
10.1791 -0.511934 0.99135
10.1791 -0.470918 0.991158
10.1791 -0.429902 0.990982
10.1791 -0.388926 0.990823
10.1791 -0.347949 0.990679
10.1791 -0.306992 0.990551
10.1791 -0.266035 0.99044
10.1791 -0.225098 0.990344
10.1792 -0.18416 0.990265
10.1792 -0.143223 0.990201
10.1792 -0.102305 0.990154
10.1792 -0.0613867 0.990122
10.1792 -0.0204687 0.990108
10.1792 0.0204687 0.990108
10.1792 0.0613867 0.990124
10.1792 0.102305 0.990157
10.1792 0.143223 0.990206
10.1792 0.18416 0.99027
10.1792 0.225098 0.99035
10.1792 0.266035 0.990447
10.1792 0.306992 0.99056
10.1792 0.347949 0.990688
10.1792 0.388926 0.990833
10.1792 0.429922 0.990993
10.1792 0.470918 0.99117
10.1792 0.511934 0.991363
