ply
format ascii 1.0
comment Created by Open3D
element vertex 1919
property float x
property float y
property float z
end_header
-2.47059 29.5498 4.89044
-2.58398 29.4778 4.88021
-2.69684 29.4061 4.87009
-2.80926 29.3347 4.8601
-2.92121 29.2636 4.85023
-3.0327 29.1928 4.84048
-3.14379 29.1223 4.83084
-3.25445 29.052 4.82132
-3.36453 28.9821 4.81191
-3.49867 29.1151 4.83629
-3.64637 29.3477 4.87732
-3.7966 29.5843 4.91913
-3.94941 29.8248 4.96174
-4.10492 30.0697 5.00518
-4.26312 30.3188 5.04946
-4.42418 30.5725 5.09463
-4.5882 30.8307 5.14069
-4.75512 31.0937 5.18767
-4.9598 31.5819 5.27241
-5.07789 31.5068 5.26326
-5.19559 31.4321 5.25422
-5.31281 31.3577 5.2453
-5.43445 31.3107 5.24106
-5.61461 31.5944 5.29228
-5.7984 31.8838 5.34461
-5.98887 32.1954 5.40084
-6.11105 32.1336 5.39455
-6.30406 32.4375 5.44979
-6.50113 32.7478 5.50626
-6.90258 34.0527 5.73027
-7.02863 33.9726 5.72151
-7.15434 33.8927 5.71286
-7.27957 33.8132 5.70434
-7.40461 33.7338 5.69593
-7.5291 33.6547 5.68764
-7.65336 33.5759 5.67946
-7.77723 33.4972 5.6714
-7.9007 33.4188 5.66345
-8.02387 33.3405 5.65562
-8.14672 33.2625 5.6479
-8.26918 33.1848 5.64029
-8.39137 33.1072 5.63279
-8.5132 33.0298 5.6254
-8.63473 32.9526 5.61813
-8.75594 32.8757 5.61096
-8.87687 32.7989 5.6039
-9.00488 32.7491 5.60154
-9.25785 33.1476 5.67601
-9.51777 33.5568 5.75259
-9.78477 33.9773 5.83136
-12.4476 42.5796 7.31626
-12.6042 42.4802 7.30783
-12.7603 42.381 7.29954
-12.3604 40.4629 6.97768
-12.5092 40.3684 6.97
-12.6577 40.2741 6.96245
-12.8058 40.1801 6.95503
-12.9075 39.9436 6.92303
-13.068 39.8914 6.92303
-13.2283 39.8386 6.92303
-13.3883 39.7851 6.92303
-13.5482 39.7309 6.92303
-13.7078 39.6762 6.92303
-13.8671 39.6207 6.92303
-14.0184 39.5424 6.91912
-14.1642 39.4497 6.91282
-14.3099 39.3572 6.90663
-14.4161 39.1582 6.88184
-14.5609 39.0663 6.87591
-14.7054 38.9746 6.87011
-14.8496 38.883 6.86443
-15.0345 38.8971 6.87754
-15.1787 38.8055 6.87208
-15.3226 38.7141 6.86675
-15.4664 38.6228 6.86153
-15.6099 38.5316 6.85643
-15.7532 38.4407 6.85145
-15.8964 38.3498 6.84658
-16.0392 38.259 6.84184
-16.182 38.1684 6.83721
-16.3245 38.0779 6.8327
-16.4221 37.8844 6.80976
-16.5639 37.7943 6.80549
-16.7055 37.7045 6.80134
-16.8469 37.6146 6.7973
-16.9882 37.5249 6.79338
-17.3281 37.8698 6.86838
-17.6193 38.1006 6.92303
-17.7723 38.0295 6.92303
-17.925 37.9578 6.92303
-18.0775 37.8854 6.92303
-18.2296 37.8125 6.92303
-18.3814 37.7388 6.92303
-18.533 37.6646 6.92303
-18.6843 37.5898 6.92303
-18.8352 37.5145 6.92303
-18.9859 37.4384 6.92303
-19.1363 37.3618 6.92303
-19.2863 37.2846 6.92303
-19.7641 37.8348 7.0399
-20.8064 39.4428 7.3546
-20.9581 39.3465 7.35228
-21.1098 39.2502 7.35008
-21.2614 39.1538 7.348
-21.4129 39.0577 7.34604
-21.5643 38.9615 7.34419
-21.7157 38.8654 7.34247
-21.867 38.7693 7.34087
-22.0182 38.6733 7.33939
-22.789 39.6555 7.54311
-22.9443 39.5568 7.54183
-23.9478 40.907 7.81755
-34.3694 58.1716 11.1432
-34.5171 57.8889 11.1155
-34.6641 57.6076 11.0882
-34.8103 57.3277 11.0612
-34.8882 56.9388 11.0131
-35.0328 56.6621 10.9867
-35.1766 56.3868 10.9607
-35.3198 56.1127 10.9349
-35.4623 55.8399 10.9094
-35.6042 55.5684 10.8843
-35.7453 55.2981 10.8594
-35.8859 55.0291 10.8348
-36.0259 54.7612 10.8105
-36.3587 54.7863 10.8442
-36.848 55.0419 10.924
-37.3443 55.3012 11.0052
-37.8482 55.5644 11.0878
-38.3597 55.8317 11.1718
-38.879 56.1029 11.2572
-39.3552 56.3052 11.3295
-39.5858 56.1531 11.3308
-39.7293 55.8784 11.3075
-39.7849 55.4828 11.2597
-39.9269 55.2109 11.237
-40.2139 55.1395 11.2553
-40.8916 55.598 11.3824
-41.4555 55.8926 11.4767
-41.9009 56.0209 11.5376
-42.612 56.4967 11.6707
-43.1791 56.7723 11.7634
-43.6748 56.9476 11.836
-44.4665 57.4997 11.9878
-45.0917 57.8264 12.0936
-45.6207 58.0221 12.1728
-46.4501 58.5908 12.3312
-46.8455 58.604 12.3735
-47.5146 58.9536 12.4876
-21.2509 23.1484 5.18258
-82.2905 36.5589 14.8506
-82.1943 35.3355 14.7553
-82.7869 35.1966 14.8362
-82.1195 34.5237 14.6915
-82.6575 34.3596 14.763
-75.4263 30.9986 13.4491
-87.129 35.3994 15.5103
-76.2403 30.619 13.5499
-71.443 28.3594 12.6769
-71.1653 27.9184 12.6076
-54.6098 21.1705 9.65948
-54.078 20.7147 9.55061
-53.5591 20.2695 9.44451
-70.5546 26.3779 12.4227
-70.6975 26.1079 12.4293
-50.619 18.4622 8.88612
-50.4073 18.1558 8.83607
-50.198 17.8528 8.78675
-49.5011 17.381 8.65245
-49.6478 17.2087 8.66592
-49.465 16.9229 8.62207
-49.3808 16.6727 8.59566
-49.6771 16.5505 8.63556
-49.9762 16.4273 8.67603
-23.0094 7.4607 3.98925
-23.0405 7.36859 3.98947
-23.0718 7.27656 3.98981
-23.1037 7.18453 3.99028
-23.1358 7.09266 3.99087
-23.1683 7.0009 3.99159
-23.2012 6.9091 3.99244
-23.2003 6.80746 3.98754
-23.06 6.6657 3.9588
-22.9229 6.52641 3.93072
-22.7888 6.38922 3.90329
-22.6576 6.25437 3.87648
-22.5292 6.12156 3.85027
-28.0532 7.50168 4.78916
-27.8874 7.3373 4.75578
-28.1336 7.28129 4.79275
-28.3841 7.22449 4.83043
-28.5599 7.14707 4.85541
-28.6463 7.04648 4.86524
-28.6705 6.93035 4.86459
-28.6948 6.81422 4.86403
-28.7193 6.6982 4.86357
-28.7438 6.58223 4.8632
-35.1524 7.90117 5.94207
-35.0063 7.72066 5.91209
-32.7136 7.07727 5.52002
-34.2845 7.27289 5.78012
-37.0994 7.7143 6.24942
-32.8427 6.69156 5.52779
-32.7939 6.54445 5.51511
-27.6934 5.4109 4.65362
-27.8315 5.32184 4.6732
-27.9712 5.23211 4.69309
-23.4541 4.28969 3.93228
-23.4892 4.19859 3.93529
-23.5243 4.10734 3.93839
-23.5598 4.01602 3.94158
-23.5954 3.92453 3.94486
-23.6311 3.83289 3.94823
-23.6671 3.74117 3.9517
-23.7032 3.64926 3.95525
-23.7277 3.55543 3.95691
-23.7304 3.4584 3.95503
-23.7334 3.36141 3.95325
-23.7366 3.26461 3.95155
-23.7399 3.16789 3.94995
-23.7434 3.07125 3.94845
-23.7328 2.97297 3.94466
-23.7193 2.87445 3.94047
-23.7061 2.77617 3.93638
-23.6929 2.6782 3.93238
-23.68 2.58031 3.92848
-23.6671 2.48273 3.92467
-23.6545 2.38527 3.92095
-23.6421 2.28805 3.91733
-23.5752 2.18598 3.90475
-23.5076 2.08445 3.89214
-23.4405 1.98359 3.87968
-23.3621 1.88234 3.86543
-23.2628 1.78031 3.84778
-23.1645 1.6791 3.83037
-23.0672 1.57883 3.81321
-27.9948 1.80305 4.62655
-27.9462 1.68723 4.61736
-27.8981 1.57176 4.60834
-27.8506 1.4568 4.59947
-27.8034 1.3423 4.59076
-27.7569 1.2282 4.58222
-27.7108 1.11461 4.57383
-22.6756 0.820781 3.74216
-22.6514 0.72875 3.73766
-22.6273 0.636875 3.73324
-22.6035 0.545312 3.7289
-22.5634 0.453555 3.72196
-22.5188 0.362148 3.71434
-22.4108 0.270273 3.6963
-22.2691 0.179063 3.67279
-22.0532 0.0886328 3.6371
-27.3556 3.90625e-05 4.20073
-22.8365 -0.0917969 3.5068
-22.7062 -0.182578 3.48688
-22.6727 -0.273438 3.48188
-22.6806 -0.364727 3.48329
-22.6885 -0.456094 3.48476
-22.6964 -0.547539 3.48628
-22.8512 -0.643203 3.51042
-26.9613 -0.867305 4.14232
-26.7997 -0.97 4.11806
-26.6409 -1.07156 4.09429
-26.485 -1.17195 4.07103
-47.0791 -2.27285 7.2379
-46.6241 -2.43875 7.16939
-53.4902 -3.01359 8.227
-45.3514 -2.73797 6.97683
-45.2603 -2.91516 6.96459
-44.0489 -3.01516 6.77998
-44.0289 -3.19164 6.77883
-43.5855 -3.33555 6.71261
-43.3615 -3.49383 6.68021
-43.1398 -3.65059 6.64826
-42.9207 -3.8059 6.61679
-42.704 -3.95973 6.58579
-42.4896 -4.11219 6.55522
-22.6195 -2.28074 3.49108
-25.2895 -2.65285 3.90477
-25.056 -2.73023 3.87037
-25.0272 -2.82898 3.86766
-24.1664 -2.82992 3.73639
-24.9698 -3.02594 3.86243
-25.0272 -3.13508 3.87322
-24.8687 -3.21684 3.85065
-24.9038 -3.3232 3.85813
-19.5969 -2.69508 3.03764
-19.9525 -2.82578 3.09451
-21.1613 -3.08398 3.28386
-21.1207 -3.16484 3.27951
-21.1177 -3.25125 3.28104
-21.1147 -3.33773 3.28263
-21.1515 -3.43074 3.29047
-21.3427 -3.54984 3.32242
-34.4575 -5.87367 5.36762
-34.5135 -6.02609 5.38008
-25.12 -4.49008 3.91857
-24.9911 -4.57074 3.90129
-24.9515 -4.66727 3.89802
-24.9824 -4.77707 3.90581
-34.3557 -6.71277 5.37542
-34.2745 -6.84004 5.367
-34.1947 -6.96715 5.35883
-20.8831 -4.34227 3.27542
-20.8424 -4.42125 3.2718
-20.802 -4.50016 3.26827
-20.7618 -4.57891 3.26483
-20.7218 -4.6575 3.26146
-20.6821 -4.73598 3.25817
-20.6425 -4.81437 3.25497
-20.6033 -4.89262 3.25185
-20.5642 -4.9707 3.24881
-20.5253 -5.04875 3.24584
-20.4657 -5.12141 3.23965
-20.4042 -5.19328 3.23319
-18.8471 -4.87789 2.98953
-18.7873 -4.94305 2.98317
-18.7277 -5.00801 2.97688
-18.6711 -5.07336 2.9711
-18.6991 -5.1618 2.97883
-18.7271 -5.25062 2.98664
-18.7554 -5.34 2.99455
-21.5207 -6.22094 3.44003
-21.5362 -6.3193 3.44654
-21.552 -6.41812 3.45316
-21.5679 -6.51742 3.45988
-19.8916 -6.09809 3.1949
-19.9527 -6.20469 3.2087
-20.0146 -6.31227 3.22271
-20.0775 -6.42094 3.23694
-21.34 -6.91941 3.44495
-21.6682 -7.12242 3.50251
-21.6857 -7.22484 3.51001
-21.7034 -7.32781 3.51762
-21.7214 -7.43125 3.52535
-21.7396 -7.53523 3.53318
-21.758 -7.63977 3.54115
-21.7767 -7.74477 3.54922
-21.7956 -7.85039 3.55743
-21.8148 -7.95648 3.56575
-21.8343 -8.06316 3.5742
-21.8539 -8.17047 3.58276
-21.8739 -8.27824 3.59146
-21.8941 -8.38668 3.60029
-21.9146 -8.4957 3.60924
-21.9353 -8.60535 3.61832
-21.9563 -8.71559 3.62753
-21.9776 -8.82648 3.63689
-21.9991 -8.93797 3.64637
-22.0209 -9.05016 3.65598
-22.0368 -9.16039 3.6647
-22.0358 -9.26398 3.6707
-22.0107 -9.35781 3.67275
-21.9598 -9.44059 3.67056
-21.8945 -9.51703 3.66602
-37.4801 -16.4711 6.2867
-37.4762 -16.6495 6.29722
-37.4727 -16.8286 6.30796
-37.4696 -17.0085 6.31888
-37.4668 -17.1892 6.33001
-37.4644 -17.3707 6.34135
-25.0411 -11.733 4.24649
-24.8193 -11.7511 4.21686
-24.7671 -11.8484 4.21604
-24.72 -11.9483 4.21616
-24.6728 -12.048 4.21635
-24.7332 -12.2009 4.23502
-24.8649 -12.3904 4.26606
-27.0861 -13.6335 4.65652
-27.1832 -13.8195 4.68272
-27.2816 -14.0079 4.70935
-27.3814 -14.1986 4.73639
-27.4827 -14.3916 4.76388
-27.5854 -14.5869 4.79181
-27.6897 -14.7848 4.8202
-27.7955 -14.9852 4.84907
-27.9028 -15.1881 4.8784
-28.0118 -15.3937 4.90823
-28.0964 -15.5876 4.934
-20.8803 -11.6942 3.675
-20.8632 -11.7951 3.68032
-20.8305 -11.8873 3.68294
-20.7759 -11.9671 3.68177
-20.6986 -12.0336 3.67659
-20.6111 -12.094 3.66969
-20.5141 -12.1481 3.66106
-20.4176 -12.2021 3.65256
-20.3217 -12.2559 3.64419
-20.2263 -12.3096 3.63594
-20.1316 -12.3631 3.62782
-20.0374 -12.4165 3.61981
-19.9438 -12.4697 3.61192
-19.8507 -12.5227 3.60415
-19.7582 -12.5757 3.59649
-19.6662 -12.6285 3.58896
-19.5747 -12.6812 3.58155
-19.4837 -12.7337 3.57423
-19.3932 -12.7862 3.56704
-19.3033 -12.8385 3.55996
-19.2138 -12.8907 3.55299
-19.1248 -12.9428 3.54612
-19.0363 -12.9947 3.53937
-18.9483 -13.0466 3.53273
-18.8607 -13.0984 3.52619
-18.7736 -13.1501 3.51975
-18.6869 -13.2017 3.51343
-18.6007 -13.2532 3.5072
-18.5149 -13.3045 3.50108
-18.4295 -13.3559 3.49506
-18.3446 -13.4071 3.48915
-18.2601 -13.4583 3.48333
-18.1759 -13.5094 3.4776
-18.0921 -13.5604 3.47199
-18.0088 -13.6113 3.46646
-17.9259 -13.6622 3.46104
-17.8432 -13.713 3.45572
-17.7611 -13.7638 3.45048
-17.6793 -13.8145 3.44535
-17.5977 -13.8651 3.44031
-17.5166 -13.9157 3.43536
-17.4359 -13.9662 3.43051
-17.3555 -14.0167 3.42574
-17.2504 -14.0468 3.41611
-25.5954 -21.0137 5.08536
-26.8759 -22.2462 5.35748
-26.6528 -22.2426 5.33078
-26.37 -22.187 5.29203
-68.7905 -58.3532 13.8521
-68.396 -58.4931 13.82
-29.1234 -25.1098 5.90493
-29.2474 -25.4224 5.95075
-67.15 -58.8441 13.7106
-22.6838 -20.0399 4.64796
-22.6902 -20.2085 4.66587
-22.6969 -20.3787 4.68406
-65.9846 -59.7258 13.667
-65.692 -59.9431 13.6562
-65.3854 -60.1467 13.6426
-65.0793 -60.35 13.6292
-64.7741 -60.553 13.6162
-64.4695 -60.7558 13.6034
-64.1652 -60.9579 13.5908
-63.8445 -61.1434 13.5748
-63.5248 -61.3287 13.5591
-63.2057 -61.5135 13.5437
-62.8877 -61.6981 13.5286
-62.604 -61.9157 13.521
-62.3595 -62.1717 13.522
-62.1703 -62.4834 13.5354
-62.1356 -62.9527 13.5828
-62.0349 -63.3582 13.6164
-4.7793 -4.92062 1.05337
-4.63809 -4.81383 1.0265
-4.61289 -4.82641 1.02521
-4.59703 -4.84859 1.02601
-4.59637 -4.88719 1.03023
-4.6525 -4.98688 1.04731
-4.62734 -5 1.04616
-4.60223 -5.01316 1.04503
-4.58793 -5.03805 1.04636
-4.63793 -5.1343 1.06247
-4.66519 -5.20641 1.0735
-60.3782 -67.9304 13.9563
-60.5083 -68.6304 14.0501
-60.4209 -69.0891 14.0941
-60.2443 -69.4486 14.1179
-60.0672 -69.8094 14.1421
-59.9018 -70.1859 14.1694
-60.2389 -71.1583 14.3168
-60.6007 -72.172 14.4716
-10.0001 -14.8086 2.74395
9.22617 -15.9802 2.83355
9.33211 -16.0148 2.84629
9.4366 -16.0455 2.85848
9.6377 -16.2376 2.89959
7.41496 -8.24172 1.70244
8.66656 -5.83965 1.60477
8.66813 -5.79019 1.60074
8.69973 -5.7609 1.6023
16.6578 -7.44082 2.80157
16.2348 -7.17367 2.72555
16.3025 -7.12547 2.73209
16.3371 -7.0625 2.73311
16.3719 -6.99953 2.7342
16.5955 -7.01633 2.7668
16.5209 -6.90672 2.74972
16.5075 -6.82324 2.7429
16.5621 -6.76797 2.74743
16.617 -6.71262 2.75205
16.6723 -6.65711 2.75675
16.7035 -6.59184 2.75751
9.94426 -3.37977 1.61284
9.95066 -3.33734 1.61169
9.99957 -3.3091 1.61744
18.1485 -2.38465 2.81084
18.0961 -2.30383 2.80127
18.0371 -2.22266 2.79075
17.9691 -2.14102 2.77886
17.9016 -2.06 2.76712
17.8417 -1.98047 2.75661
17.8552 -1.9093 2.75749
17.8687 -1.83812 2.75841
17.8823 -1.76695 2.75939
17.8959 -1.6957 2.76042
17.9096 -1.6243 2.76151
17.917 -1.55242 2.76167
17.9226 -1.48039 2.76159
18.1891 -1.42875 2.80173
17.538 -1.3068 2.70062
17.3044 -1.21945 2.66388
16.9951 -1.12898 2.61554
17.0201 -1.06195 2.61871
17.0298 -0.993867 2.61957
17.0263 -0.925 2.61844
17.0229 -0.856211 2.61736
17.0196 -0.7875 2.61634
17.0163 -0.71875 2.61537
17.0132 -0.650117 2.61447
17.0102 -0.581562 2.61363
17.563 -0.529766 2.69822
17.602 -0.460078 2.70391
17.6299 -0.389922 2.70793
17.658 -0.319531 2.71202
17.9404 -0.2525 2.75522
18.2847 -0.183867 2.80796
8.16621 0.246289 1.25459
8.1616 0.278984 1.25403
8.18203 0.312656 1.25736
27.212 15.7473 4.82793
27.1167 15.838 4.82228
26.97 15.8981 4.80752
27.0723 16.1054 4.83726
26.915 16.1587 4.82072
26.6191 16.127 4.7793
26.9012 16.4461 4.84178
26.7589 16.5071 4.82806
27.1273 16.8854 4.90674
16.803 16.6852 3.63521
19.0176 33.2475 5.88171
18.9068 33.3642 5.88888
18.7562 33.4108 5.88373
17.4283 34.1965 5.8939
17.2866 34.258 5.89247
31.4243 74.5375 12.4216
30.9452 74.2332 12.3501
30.4715 73.9324 12.2796
30.0033 73.635 12.21
29.5402 73.3411 12.1415
29.1359 73.1849 12.0962
28.7296 73.017 12.0492
28.2802 72.7316 11.9833
27.8357 72.4493 11.9182
27.3006 71.9187 11.8128
26.961 71.8938 11.7908
26.5305 71.6205 11.7284
26.1047 71.35 11.6668
19.9724 55.2766 9.02537
19.648 55.0707 8.97879
19.327 54.8668 8.9328
19.0093 54.6651 8.88744
18.6947 54.4653 8.84268
18.3833 54.2676 8.7985
18.0751 54.0718 8.75491
17.8086 53.9956 8.73092
17.5457 53.9264 8.70824
17.245 53.7355 8.66614
16.9472 53.5463 8.62459
16.6522 53.3591 8.58357
10.7589 34.9686 5.61821
10.5685 34.8477 5.59192
10.3799 34.728 5.56596
10.1931 34.6093 5.54034
10.008 34.4917 5.51503
9.82453 34.3752 5.49004
9.6427 34.2598 5.46537
9.46254 34.1454 5.441
9.28395 34.032 5.41694
9.10691 33.9195 5.39318
8.93148 33.8081 5.36971
8.75754 33.6977 5.34653
8.58512 33.5882 5.32363
8.45094 33.6261 5.32422
8.30047 33.5982 5.31446
7.9332 32.6752 5.16338
7.76945 32.5712 5.14197
7.60703 32.468 5.12082
7.44594 32.3657 5.09992
7.28617 32.2642 5.07927
7.17047 32.3567 5.08925
7.06891 32.5166 5.1099
6.9375 32.5419 5.10944
6.65965 31.8664 4.99914
6.50613 31.7689 4.97969
6.35375 31.6721 4.96049
6.2025 31.5761 4.9415
6.0525 31.4808 4.92274
5.92914 31.522 4.92542
5.82742 31.6821 4.94673
5.71793 31.8048 4.96225
5.59984 31.8832 4.97094
5.4516 31.7891 4.95281
5.30457 31.6957 4.9349
5.15855 31.6029 4.91718
4.97977 31.2987 4.86669
4.83676 31.2078 4.84951
2.28477 15.1439 2.35183
2.22566 15.1651 2.35371
4.41379 30.9392 4.79915
4.28895 30.9539 4.79871
4.18434 31.1186 4.8216
4.07875 31.285 4.84479
3.97215 31.4529 4.86828
3.86445 31.6224 4.89208
3.7557 31.7937 4.9162
3.6459 31.9666 4.94062
3.53496 32.1413 4.96538
3.42297 32.3177 4.99047
3.3098 32.4958 5.0159
3.19555 32.6759 5.04166
3.08 32.8578 5.06777
2.96328 33.0415 5.09423
2.84531 33.2273 5.12107
2.72613 33.415 5.14827
2.60566 33.6047 5.17584
2.48387 33.7964 5.20379
2.36082 33.9903 5.23213
2.23641 34.1862 5.26087
2.11051 34.3844 5.29001
1.98328 34.5847 5.31957
1.84191 34.5473 5.31265
1.69816 34.456 5.29751
1.55523 34.3653 5.28255
1.41309 34.275 5.26776
1.27172 34.1853 5.25314
1.13121 34.096 5.23868
0.991406 34.0073 5.22439
0.852383 33.919 5.21026
0.714102 33.8312 5.19629
0.576562 33.7438 5.18248
0.439727 33.6569 5.16882
0.303672 33.5705 5.15531
0.168242 33.4845 5.14197
0.0335547 33.399 5.12876
-0.100469 33.3139 5.11572
-0.23375 33.2292 5.10282
-0.366445 33.145 5.09007
-0.464727 30.8236 4.73383
-0.587187 30.7459 4.7222
-0.709062 30.6685 4.71072
-0.830312 30.5915 4.69937
-0.950977 30.5148 4.68814
-1.07113 30.4385 4.67704
-1.19062 30.3626 4.66608
-1.30965 30.287 4.65523
-1.42813 30.2118 4.64452
-1.54605 30.137 4.63393
-1.6634 30.0624 4.62346
-1.78027 29.9882 4.61311
-1.89656 29.9143 4.60288
-2.01234 29.8408 4.59278
-2.12766 29.7675 4.58278
-2.24246 29.6946 4.57291
-2.35676 29.6221 4.56315
-2.47059 29.5498 4.55351
-2.58398 29.4778 4.54398
-2.69684 29.4061 4.53457
-2.80926 29.3347 4.52526
-2.92121 29.2636 4.51607
-3.0327 29.1928 4.50699
-3.14379 29.1223 4.49802
-3.25445 29.052 4.48915
-3.36453 28.9821 4.4804
-3.49867 29.1151 4.5031
-3.64637 29.3477 4.5413
-3.7966 29.5843 4.58022
-3.94941 29.8248 4.6199
-4.10492 30.0697 4.66035
-4.26312 30.3188 4.70158
-4.42418 30.5725 4.74363
-4.58816 30.8307 4.78652
-4.75512 31.0937 4.83027
-4.9598 31.5819 4.90917
-5.07789 31.5068 4.90064
-5.19559 31.4321 4.89222
-5.31281 31.3577 4.88391
-5.43449 31.3107 4.87997
-5.61461 31.5944 4.92767
-5.79836 31.8837 4.97639
-5.98887 32.1954 5.02875
-6.11109 32.1336 5.02289
-6.3041 32.4375 5.07432
-6.50113 32.7478 5.12691
-6.90258 34.0527 5.33548
-7.02863 33.9726 5.32732
-7.15434 33.8927 5.31928
-7.27957 33.8132 5.31134
-7.40457 33.7338 5.3035
-7.5291 33.6547 5.29579
-7.65336 33.5758 5.28818
-7.77723 33.4972 5.28067
-7.9007 33.4188 5.27326
-8.02387 33.3405 5.26597
-8.14672 33.2625 5.25878
-8.26922 33.1848 5.2517
-8.39141 33.1072 5.24472
-8.51324 33.0298 5.23784
-8.63473 32.9526 5.23106
-8.75594 32.8757 5.22439
-8.87687 32.7989 5.21782
-9.00484 32.7491 5.21562
-9.25785 33.1476 5.28496
-9.51777 33.5568 5.35627
-9.78477 33.9773 5.42961
-10.0592 34.4094 5.50507
-10.3413 34.8537 5.58278
-12.8042 42.5266 6.81999
-12.3604 40.463 6.49694
-12.5092 40.3684 6.4898
-12.6577 40.2741 6.48277
-12.8058 40.1801 6.47586
-12.9891 40.1959 6.48678
-13.137 40.102 6.4801
-13.2846 40.0083 6.47353
-13.4319 39.9148 6.46707
-13.5789 39.8214 6.46073
-13.7257 39.7282 6.45452
-13.8721 39.6352 6.44841
-14.0184 39.5424 6.44243
-14.1642 39.4497 6.43655
-14.3099 39.3572 6.43079
-14.4161 39.1582 6.40771
-14.5609 39.0663 6.4022
-14.7054 38.9746 6.39679
-14.8496 38.883 6.3915
-15.0345 38.8971 6.40371
-15.1787 38.8055 6.39863
-15.3226 38.7141 6.39366
-15.4664 38.6228 6.3888
-15.6099 38.5316 6.38405
-15.7532 38.4407 6.37941
-15.8964 38.3498 6.37489
-16.0392 38.259 6.37047
-16.182 38.1684 6.36616
-16.3245 38.0779 6.36195
-16.4221 37.8844 6.3406
-16.5639 37.7943 6.33663
-16.7055 37.7045 6.33276
-16.8469 37.6146 6.329
-16.9882 37.5249 6.32535
-17.3281 37.8698 6.39517
-18.0068 38.9387 6.58785
-18.1934 38.9306 6.59879
-18.3403 38.8373 6.59542
-18.4871 38.7441 6.59216
-18.6339 38.6509 6.589
-18.7804 38.5578 6.58595
-18.9268 38.4649 6.58302
-19.073 38.372 6.58019
-19.2192 38.2792 6.57748
-19.3653 38.1865 6.57486
-19.5112 38.0938 6.57237
-19.657 38.0012 6.56997
-19.8027 37.9087 6.56769
-20.8064 39.4428 6.8479
-20.9581 39.3465 6.84575
-21.1098 39.2502 6.84369
-21.2614 39.1538 6.84176
-21.4129 39.0577 6.83993
-21.5643 38.9615 6.83821
-21.7157 38.8654 6.83662
-21.867 38.7693 6.83512
-22.0182 38.6733 6.83374
-22.5008 39.154 6.93462
-26.5615 45.7931 8.12931
-33.9048 57.9154 10.3054
-34.2078 57.898 10.3267
-34.5171 57.8888 10.3497
-34.6641 57.6076 10.3243
-34.8103 57.3277 10.2991
-34.8882 56.9388 10.2543
-35.0328 56.6621 10.2298
-35.1766 56.3868 10.2055
-35.3198 56.1127 10.1815
-35.4623 55.8399 10.1578
-35.6042 55.5684 10.1344
-35.7453 55.2981 10.1112
-35.8859 55.0291 10.0883
-36.0259 54.7612 10.0657
-36.3587 54.7863 10.0971
-36.8479 55.0419 10.1714
-37.3443 55.3012 10.247
-37.8482 55.5644 10.3239
-38.3597 55.8317 10.4021
-38.879 56.103 10.4817
-39.3552 56.3052 10.549
-39.499 56.03 10.527
-39.6423 55.7558 10.5054
-39.7848 55.4828 10.484
-39.9269 55.2109 10.4629
-40.2139 55.1396 10.4799
-40.8916 55.598 10.5982
-41.1721 55.5104 10.6129
-41.3334 55.2623 10.5972
-41.9068 55.5618 10.6868
-42.4857 55.8606 10.7771
-43.6749 56.9477 11.0206
-44.4665 57.4997 11.1619
-45.0918 57.8264 11.2604
-45.6207 58.0221 11.3342
-21.2503 23.1477 4.82528
-87.5007 38.0341 14.6511
-81.3842 34.9872 13.6033
-81.0096 34.4411 13.5175
-55.0535 23.145 9.17072
-55.1679 22.9326 9.17435
-55.2827 22.7201 9.17818
-55.3979 22.5076 9.18222
-55.5129 22.2947 9.18634
-26.2418 10.4166 4.33556
-26.4176 10.3637 4.35768
-26.5956 10.3104 4.38017
-26.6639 10.2137 4.38462
-26.7328 10.117 4.38923
-26.8027 10.0205 4.39406
-26.8735 9.92406 4.39909
-26.9452 9.82758 4.40431
-27.0178 9.73121 4.40976
-27.0914 9.63484 4.41542
-27.166 9.53855 4.42129
-27.2416 9.44227 4.42738
-27.3182 9.34598 4.43369
-27.393 9.24875 4.43977
-27.4148 9.13348 4.4373
-27.4369 9.01844 4.43498
-27.4594 8.90367 4.43279
-27.4067 8.76504 4.41856
-27.3364 8.62156 4.40161
-28.4455 8.84578 4.57443
-28.2891 8.67258 4.54363
-28.0842 8.48648 4.50521
-27.977 8.33141 4.48259
-27.8488 8.17152 4.45676
-27.8884 8.06148 4.45787
-27.928 7.95148 4.45907
-27.8782 7.81625 4.44604
-27.7482 7.65961 4.42038
-27.62 7.50492 4.39512
-28.0881 7.51094 4.46475
-28.1284 7.4007 4.4664
-28.1688 7.29043 4.46814
-27.9671 7.11832 4.43155
-28.137 7.04133 4.45397
-28.2435 6.94738 4.46636
-28.2675 6.83293 4.46577
-28.2915 6.71844 4.46526
-28.3156 6.60406 4.46484
-28.2621 6.47187 4.45227
-28.4411 6.39266 4.47637
-28.8693 6.36711 4.53971
-29.3056 6.33992 4.60428
-29.6818 6.29648 4.65936
-29.8508 6.20703 4.68193
-30.0219 6.11684 4.70488
-35.7923 7.14289 5.60465
-37.2228 7.27297 5.82403
-37.2034 7.11402 5.81647
-37.8493 7.07992 5.91297
-22.9068 4.18953 3.57591
-22.9405 4.10055 3.57858
-22.9745 4.01141 3.58134
-22.9954 3.91984 3.58211
-22.9977 3.82512 3.58005
-23.0001 3.73055 3.57807
-23.0028 3.63617 3.57617
-23.0056 3.54187 3.57436
-23.0084 3.4477 3.57263
-23.0115 3.35363 3.57098
-23.0148 3.25965 3.56942
-23.0181 3.16578 3.56794
-23.0216 3.07203 3.56654
-23.0253 2.97836 3.56522
-23.0291 2.8848 3.56399
-23.033 2.79133 3.56284
-23.0372 2.69789 3.56177
-23.0415 2.60453 3.56078
-23.0459 2.51125 3.55987
-23.0504 2.41805 3.55904
-23.0551 2.32484 3.5583
-23.06 2.23172 3.55764
-23.0575 2.13797 3.5559
-29.4311 2.60969 4.53718
-29.1182 2.46406 4.48738
-28.8127 2.32152 4.43882
-28.4909 2.18035 4.38786
-29.0095 2.10281 4.46639
-28.8845 1.97703 4.44589
-28.7608 1.85246 4.42567
-28.5882 1.72598 4.39801
-28.3123 1.59516 4.35454
-28.0421 1.46687 4.31204
-27.7777 1.34102 4.2705
-27.5186 1.2177 4.22989
-27.2507 1.09609 4.18801
-25.2994 0.915625 3.8875
-24.5293 0.789141 3.76867
-24.486 0.689219 3.76156
-24.4883 0.590781 3.76152
-24.5605 0.49375 3.77228
-25.3391 0.407422 3.89155
-54.5905 0.65832 8.38355
-26.9541 0.216719 4.13921
-27.6871 0.111328 4.25168
-22.9637 0 3.26627
-22.832 -0.0917969 3.24757
-22.7018 -0.1825 3.22912
-22.6702 -0.273438 3.22475
-22.678 -0.364688 3.22606
-22.686 -0.456055 3.22742
-22.6939 -0.547422 3.22883
-22.8447 -0.643047 3.25063
-43.7229 -1.40656 6.2222
-43.7421 -1.58328 6.22578
-28.8623 -1.16086 4.10859
-29.3466 -1.29852 4.17824
-29.6276 -1.43031 4.21903
-29.8721 -1.56258 4.25471
-29.988 -1.68949 4.27214
-30.105 -1.8175 4.28982
-30.2232 -1.94664 4.30774
-30.3426 -2.0768 4.32591
-30.4631 -2.20812 4.34434
-30.585 -2.34063 4.36302
-30.6948 -2.4732 4.38008
-30.7338 -2.6007 4.38709
-30.7686 -2.72828 4.39358
-30.8037 -2.85625 4.40019
-30.8389 -2.98453 4.40691
-30.8745 -3.11332 4.41375
-25.2811 -2.65199 3.61561
-25.053 -2.72992 3.58455
-25.0243 -2.82863 3.58203
-24.9957 -2.92719 3.57958
-24.967 -3.02562 3.57719
-25.0227 -3.13453 3.58696
-25.1348 -3.25125 3.60487
-42.0369 -5.60957 6.03219
-41.8871 -5.76102 6.01395
-21.2864 -3.01492 3.05792
-21.1573 -3.08344 3.04112
-21.1182 -3.16445 3.03732
-21.1153 -3.25086 3.03874
-21.1123 -3.33734 3.04022
-21.1453 -3.42969 3.04693
-21.3364 -3.54883 3.0765
-29.0871 -4.95828 4.1969
-41.5712 -7.25844 6.00241
-18.6841 -3.33953 2.6997
-18.7886 -3.43621 2.71676
-18.8949 -3.53422 2.73417
-19.0033 -3.63359 2.75195
-19.1137 -3.73438 2.77009
-19.2262 -3.83672 2.78861
-19.3409 -3.94055 2.80751
-19.4578 -4.04586 2.82682
-19.577 -4.15285 2.84654
-19.6986 -4.26141 2.86668
-19.8225 -4.37172 2.88725
-19.8717 -4.46641 2.89702
-19.9017 -4.55727 2.90403
-19.932 -4.64867 2.91116
-19.9628 -4.74055 2.91841
-19.948 -4.8218 2.91907
-19.9109 -4.89766 2.91649
-19.8739 -4.97336 2.91398
-19.8315 -5.04758 2.91072
-18.8447 -4.87727 2.76872
-18.7849 -4.9425 2.76283
-18.7254 -5.00734 2.75701
-18.6686 -5.07266 2.75163
-18.6966 -5.16109 2.75879
-18.7246 -5.24992 2.76603
-18.7529 -5.33922 2.77334
-32.4128 -9.36953 4.79902
-32.3282 -9.48602 4.79211
-32.244 -9.6023 4.78532
-31.7097 -9.58203 4.7117
-31.383 -9.62113 4.66885
-23.3284 -7.25477 3.47489
-23.2408 -7.33 3.46619
-23.2323 -7.43016 3.46936
-23.2403 -7.53586 3.47504
-31.6669 -10.409 4.74128
-31.5861 -10.5234 4.73547
-31.5056 -10.6374 4.72978
-20.5365 -7.02578 3.08728
-20.813 -7.21395 3.13317
-21.0982 -7.40789 3.18056
-33.1569 -11.7921 5.0055
-33.3601 -12.0157 5.04342
-22.5353 -8.2191 3.4119
-23.6926 -8.7493 3.59242
-36.1232 -13.5052 5.48538
-36.0937 -13.6598 5.4892
-39.5756 -15.1597 6.02795
-39.3167 -15.2421 5.9978
-32.0908 -12.5894 4.90315
-32.0234 -12.7117 4.90062
-21.5431 -8.6518 3.30212
-22.3059 -9.06246 3.42459
-22.3534 -9.18656 3.43753
-22.4016 -9.31187 3.45067
-22.4505 -9.4382 3.46401
-39.9127 -16.9688 6.16881
-39.9299 -17.166 6.18207
-39.773 -17.2883 6.16851
-39.6171 -17.4102 6.15513
-39.462 -17.5316 6.14193
-40.2437 -18.073 6.27485
-40.299 -18.2929 6.29489
-25.0354 -11.7304 3.93245
-24.8137 -11.7484 3.90501
-24.7643 -11.8471 3.9047
-24.7171 -11.9469 3.90481
-24.67 -12.0467 3.90498
-24.7275 -12.1981 3.9218
-24.859 -12.3874 3.95053
-35.7029 -17.9707 5.68527
-28.0023 -14.2358 4.4681
-27.9089 -14.3297 4.46234
-27.8156 -14.4235 4.45667
-27.8321 -14.5743 4.46865
-35.205 -18.6161 5.66443
-35.1069 -18.7452 5.66072
-30.6274 -16.512 4.94909
-31.0623 -16.9079 5.0303
-31.5136 -17.3181 5.11462
-31.7745 -17.6281 5.16842
-31.7666 -17.7912 5.17873
-30.7427 -17.3805 5.02317
-30.555 -17.4368 5.00392
-30.4845 -17.5594 5.00389
-30.4507 -17.7034 5.00999
-34.3716 -20.1681 5.66836
-33.8023 -20.0172 5.5877
-33.648 -20.1089 5.57552
-33.3109 -20.0896 5.53299
-29.0145 -17.6577 4.83107
-29.3153 -18.0027 4.89318
-31.7667 -19.6845 5.31552
-31.5352 -19.7169 5.29001
-31.2523 -19.7152 5.25581
-23.7955 -15.1455 4.012
-23.6684 -15.1986 4.00083
-23.6094 -15.2951 4.00122
-23.6117 -15.4316 4.01209
-25.3539 -16.7162 4.31952
-25.2514 -16.7947 4.31353
-25.2556 -16.9444 4.32585
-25.277 -17.1065 4.34126
-29.5193 -20.1506 5.08369
-29.408 -20.2484 5.07851
-29.2971 -20.346 5.07342
-29.1864 -20.4436 5.06845
-29.0747 -20.5401 5.06336
-25.8853 -18.4435 4.52081
-26.0106 -18.6909 4.55579
-26.1385 -18.9427 4.59149
-26.2689 -19.1987 4.62791
-26.4019 -19.4591 4.66509
-28.4253 -21.1271 5.03756
-28.0916 -21.0549 4.99338
-27.7643 -20.9844 4.95015
-29.047 -22.138 5.19467
-29.2587 -22.4858 5.24866
-29.4216 -22.7997 5.29427
-29.3855 -22.9614 5.30437
-75.8499 -59.7612 13.7349
-74.6187 -59.279 13.555
-72.8704 -58.3693 13.2799
-25.1805 -20.3364 4.60378
-25.0953 -20.4348 4.60318
-70.2638 -57.6863 12.9308
-69.7162 -57.7073 12.8726
-69.2496 -57.7919 12.8292
-68.7898 -57.8788 12.787
-68.3967 -58.0192 12.7572
-68.0055 -58.1591 12.7277
-67.6032 -58.2873 12.6962
-67.176 -58.3913 12.66
-66.7514 -58.4948 12.6241
-66.3291 -58.5979 12.5887
-66.0413 -58.818 12.5789
-65.7546 -59.0384 12.5694
-65.4662 -59.2564 12.5597
-65.1784 -59.4744 12.5502
-64.889 -59.6902 12.5406
-64.5858 -59.8924 12.5285
-64.2833 -60.0943 12.5165
-63.9823 -60.2966 12.505
-63.6824 -60.4992 12.4938
-63.3823 -60.7007 12.4827
-63.0653 -60.8852 12.4684
-62.7492 -61.0691 12.4543
-62.4338 -61.253 12.4405
-62.1917 -61.508 12.4415
-61.9506 -61.7641 12.4428
-61.7074 -62.0182 12.4439
-61.4642 -62.2725 12.4453
-61.2211 -62.527 12.4468
-4.7793 -4.92062 0.975691
-4.63809 -4.81383 0.950804
-4.61289 -4.82641 0.949607
-4.59703 -4.84859 0.950346
-4.59637 -4.88719 0.954262
-4.6525 -4.98688 0.970081
-4.62734 -5 0.969014
-4.60223 -5.01316 0.967964
-4.58793 -5.03805 0.969199
-4.63793 -5.1343 0.984121
-4.66519 -5.20641 0.994336
-59.6368 -67.0962 12.7684
-59.6242 -67.6275 12.8238
-59.6115 -68.1636 12.8799
-59.5881 -68.6921 12.9344
-59.4078 -69.043 12.9554
-59.224 -69.3918 12.9761
-59.0398 -69.7418 12.997
-59.0151 -70.2835 13.0536
-59.095 -70.9559 13.1343
-59.39 -71.896 13.264
-59.5408 -72.6716 13.3628
-60.3579 -74.2759 13.6131
-60.794 -75.4302 13.7798
-60.9215 -76.2134 13.878
-9.99984 -14.8082 2.54153
-16.1162 -38.8804 5.98647
-15.9587 -38.9422 5.98607
-15.8161 -39.0406 5.99138
-15.6759 -39.1461 5.99784
-15.57 -39.3393 6.0178
-15.4183 -39.4184 6.02036
-15.2689 -39.5035 6.02396
9.33195 -16.3145 2.67332
9.24758 -16.0173 2.63069
9.25844 -15.8882 2.61557
9.32418 -15.8543 2.61614
9.36176 -15.7727 2.60887
9.50758 -15.8727 2.6317
9.59887 -15.8798 2.63926
9.69066 -15.887 2.64692
7.3852 -8.27531 1.57763
7.4002 -8.22527 1.57375
7.44109 -8.20422 1.57543
8.0175 -7.16945 1.52983
8.03555 -7.12766 1.5278
8.05359 -7.08609 1.52581
8.07164 -7.04457 1.52385
8.08973 -7.00328 1.52193
8.10777 -6.96203 1.52005
8.12582 -6.92102 1.51821
8.14387 -6.88008 1.5164
8.16187 -6.8393 1.51463
8.17996 -6.79859 1.51289
8.19801 -6.75812 1.51119
8.21605 -6.71766 1.50953
8.2341 -6.67738 1.5079
8.25215 -6.63719 1.50631
8.2702 -6.59719 1.50475
8.28824 -6.55719 1.50323
8.30746 -6.51824 1.50194
8.32734 -6.47992 1.50082
8.34723 -6.44168 1.49972
8.36707 -6.40352 1.49864
8.38688 -6.36539 1.4976
8.40668 -6.3273 1.49658
8.42645 -6.28926 1.49558
8.44617 -6.25133 1.49462
8.4659 -6.21336 1.49367
8.48559 -6.17551 1.49276
8.50523 -6.13766 1.49187
8.52488 -6.09988 1.491
8.54453 -6.06219 1.49016
8.56414 -6.02445 1.48934
8.58379 -5.98676 1.48855
8.60336 -5.94922 1.48779
8.62289 -5.91164 1.48705
8.64238 -5.8741 1.48634
8.66195 -5.8366 1.48565
8.66797 -5.79012 1.48267
8.69973 -5.7609 1.48414
8.72043 -5.72434 1.48373
8.73988 -5.68699 1.48314
8.75937 -5.64965 1.48258
8.77879 -5.61234 1.48204
8.79824 -5.57512 1.48152
8.81766 -5.53781 1.48103
8.83707 -5.50062 1.48057
8.85645 -5.46344 1.48012
8.87582 -5.42625 1.47971
8.89527 -5.38906 1.47931
8.91461 -5.35191 1.47895
8.93394 -5.31477 1.4786
8.95332 -5.2777 1.47828
8.9727 -5.2407 1.47799
8.99199 -5.20359 1.47772
9.01137 -5.16656 1.47747
9.03066 -5.12949 1.47725
9.05 -5.09246 1.47705
9.06938 -5.05543 1.47688
9.08867 -5.01844 1.47673
9.10801 -4.98148 1.4766
9.12738 -4.94445 1.4765
9.14668 -4.90746 1.47642
9.16598 -4.87047 1.47637
9.18531 -4.83348 1.47634
9.20469 -4.79656 1.47634
9.22402 -4.75957 1.47636
9.24332 -4.72258 1.4764
9.26266 -4.68555 1.47647
9.28199 -4.64859 1.47656
9.30133 -4.61164 1.47668
9.3207 -4.57465 1.47682
9.34012 -4.53766 1.47699
9.35941 -4.50063 1.47718
9.37879 -4.46359 1.47739
9.3982 -4.42656 1.47763
9.41762 -4.38957 1.47789
9.43703 -4.3525 1.47818
9.45641 -4.31539 1.47849
9.47582 -4.27836 1.47882
9.49523 -4.24125 1.47918
9.51469 -4.20414 1.47957
9.53418 -4.16703 1.47998
9.55363 -4.12984 1.48041
9.57312 -4.0927 1.48087
9.59262 -4.05547 1.48135
9.61215 -4.01828 1.48186
9.63164 -3.98098 1.48239
9.65117 -3.94375 1.48295
9.67078 -3.90645 1.48353
9.69039 -3.86914 1.48413
9.70996 -3.83172 1.48476
9.72957 -3.79441 1.48542
9.74918 -3.75695 1.4861
9.76891 -3.71953 1.48681
9.78855 -3.68203 1.48754
9.80824 -3.64445 1.48829
9.82801 -3.60687 1.48907
9.84773 -3.56934 1.48988
9.8675 -3.53164 1.49071
9.8873 -3.49398 1.49157
9.90715 -3.45625 1.49245
9.92703 -3.41844 1.49336
9.94344 -3.37945 1.49378
9.95074 -3.33734 1.49284
9.98668 -3.30484 1.49624
10.0067 -3.26688 1.49725
10.0266 -3.22891 1.49828
10.0467 -3.19078 1.49935
10.0667 -3.15266 1.50044
10.0868 -3.11449 1.50155
10.1071 -3.07625 1.50271
10.1295 -3.03871 1.50422
10.1521 -3.00102 1.50577
10.1747 -2.96332 1.50735
10.1975 -2.92547 1.50896
10.2203 -2.88762 1.51062
10.2433 -2.84977 1.5123
10.2663 -2.81172 1.51403
10.2894 -2.77367 1.51578
10.3128 -2.73551 1.51758
10.3361 -2.69727 1.51941
10.3596 -2.65898 1.52128
10.3832 -2.62059 1.52319
10.4069 -2.58211 1.52513
10.4307 -2.54352 1.52711
10.4547 -2.50492 1.52913
17.9845 -2.51039 2.58287
17.876 -2.42199 2.56586
17.7691 -2.33477 2.54914
17.6636 -2.24875 2.53269
17.5597 -2.16383 2.51652
17.4154 -2.075 2.49464
17.4656 -2.00984 2.50065
17.4871 -1.94109 2.50258
17.5087 -1.8723 2.50458
17.5304 -1.80328 2.50663
17.5522 -1.7343 2.50873
17.5742 -1.66523 2.5109
17.1516 -1.5557 2.44962
11.2507 -0.974766 1.60626
11.2243 -0.927031 1.60193
11.2386 -0.882734 1.60347
17.8214 -1.32781 2.54188
17.889 -1.26055 2.55078
17.9571 -1.19281 2.55979
18.0258 -1.12465 2.56892
17.9827 -1.04945 2.56216
17.9702 -0.97625 2.55979
17.8664 -0.898633 2.54448
17.8377 -0.825312 2.5399
17.3741 -0.733906 2.47346
17.419 -0.665625 2.47944
17.1926 -0.587734 2.44686
17.2135 -0.519219 2.44951
17.2157 -0.450039 2.44955
17.218 -0.380859 2.44965
17.2205 -0.311641 2.4498
17.2231 -0.242422 2.45002
17.2259 -0.173203 2.45029
17.2288 -0.103984 2.45061
17.2318 -0.0347266 2.451
17.2349 0.0345313 2.45145
17.2361 0.103867 2.45166
17.2364 0.173164 2.45179
17.1703 0.241523 2.4425
17.1028 0.309297 2.43305
17.036 0.37668 2.42375
16.97 0.443437 2.41459
8.16562 0.246289 1.16199
8.16121 0.278984 1.16149
8.18137 0.312578 1.16454
27.099 15.5369 4.44304
26.9559 15.5991 4.42982
26.8096 15.6586 4.41608
26.6609 15.7159 4.40197
27.0877 16.1145 4.48309
26.9304 16.168 4.46779
26.4041 15.9967 4.39111
26.9201 16.4576 4.48788
26.9049 16.5973 4.49644
26.9491 16.7745 4.51505
26.9736 16.9405 4.53053
26.3108 16.6721 4.43043
16.7978 16.6801 3.36711
16.4601 34.6752 5.45955
31.4244 74.5375 11.5056
30.9452 74.2332 11.4394
30.4716 73.9324 11.3741
30.0032 73.635 11.3096
29.5403 73.341 11.2462
29.136 73.185 11.2042
28.3678 72.0974 11.0201
27.9241 71.8156 10.9598
27.7154 72.1361 10.9916
27.0509 71.2612 10.8417
26.6405 71.0393 10.7915
26.4351 71.3629 10.8244
20.3001 55.4848 8.40358
19.9724 55.2766 8.35983
19.648 55.0707 8.31667
19.327 54.8669 8.27408
19.0093 54.6651 8.23207
18.6947 54.4653 8.1906
12.1436 35.8479 5.38351
11.9399 35.7186 5.35684
11.7383 35.5906 5.33051
11.5386 35.4637 5.30452
11.3408 35.3382 5.27888
11.145 35.2138 5.25356
10.951 35.0907 5.22858
10.7589 34.9686 5.20391
10.5685 34.8477 5.17956
10.3799 34.728 5.15551
10.1931 34.6093 5.13177
10.008 34.4917 5.10834
9.82449 34.3752 5.08519
9.6427 34.2598 5.06234
9.46254 34.1454 5.03977
9.28395 34.032 5.01748
9.10691 33.9195 4.99548
8.93148 33.8081 4.97373
8.75754 33.6977 4.95226
8.58512 33.5882 4.93106
8.45094 33.6261 4.9316
8.30047 33.5982 4.92257
7.9332 32.6752 4.78262
7.76945 32.5711 4.76279
7.60703 32.468 4.74319
7.44594 32.3657 4.72384
7.30344 32.3409 4.7159
7.17336 32.37 4.7159
7.06891 32.5166 4.73309
6.9375 32.5419 4.73266
6.77988 32.4418 4.71411
6.62359 32.3426 4.69578
6.46852 32.2441 4.67766
6.31457 32.1463 4.65976
6.16184 32.0493 4.64207
6.0102 31.953 4.62459
5.85973 31.8575 4.60731
5.71035 31.7626 4.59024
5.56215 31.6685 4.57337
5.41492 31.575 4.55669
5.26887 31.4823 4.54021
5.12383 31.3901 4.52392
4.97977 31.2987 4.50781
4.83676 31.2079 4.4919
2.28473 15.1434 2.17832
2.22563 15.1645 2.18006
4.41379 30.9392 4.44525
4.28898 30.9539 4.44485
4.18434 31.1186 4.46605
4.07875 31.285 4.48753
3.97215 31.4529 4.50928
3.86445 31.6224 4.53133
3.7557 31.7937 4.55366
3.6459 31.9666 4.57629
3.53496 32.1413 4.59923
3.42297 32.3177 4.62246
3.3098 32.4959 4.64601
3.19551 32.6759 4.66988
3.08 32.8578 4.69406
2.96324 33.0416 4.71858
2.84531 33.2273 4.74343
2.72613 33.415 4.76862
2.60566 33.6047 4.79416
2.48387 33.7964 4.82006
2.36078 33.9902 4.84631
2.23637 34.1862 4.87293
2.11055 34.3843 4.89992
1.98332 34.5847 4.92729
1.84191 34.5473 4.92088
1.69816 34.456 4.90686
1.55523 34.3653 4.893
1.41309 34.275 4.87931
1.27172 34.1853 4.86576
1.13121 34.096 4.85237
0.991406 34.0073 4.83913
0.852383 33.919 4.82604
0.714102 33.8312 4.8131
0.576523 33.7438 4.80031
0.439727 33.6569 4.78766
0.303633 33.5705 4.77515
0.168242 33.4845 4.76279
0.0335547 33.399 4.75056
-0.100469 33.3139 4.73848
-0.23375 33.2293 4.72653
-0.366445 33.145 4.71472
-0.464687 30.8236 4.38475
-0.587187 30.7459 4.37398
-0.709062 30.6685 4.36334
-0.830312 30.5915 4.35283
-0.951016 30.5148 4.34243
-1.07113 30.4385 4.33215
-1.19062 30.3626 4.32199
-1.30965 30.287 4.31195
-1.42813 30.2118 4.30203
-1.54602 30.137 4.29222
-1.66336 30.0624 4.28252
-1.78023 29.9882 4.27293
-1.89656 29.9143 4.26346
-2.01234 29.8408 4.2541
-2.12766 29.7675 4.24484
-2.24246 29.6946 4.2357
-2.35676 29.6221 4.22666
-2.47059 29.5498 4.21773
-2.58398 29.4778 4.2089
-2.69684 29.4061 4.20018
-2.80926 29.3347 4.19156
-2.92121 29.2636 4.18305
-3.03273 29.1928 4.17464
-3.14379 29.1223 4.16633
-3.25445 29.052 4.15812
-3.36453 28.9821 4.15
-3.49871 29.1151 4.17103
-3.64637 29.3477 4.20641
-3.7966 29.5843 4.24247
-3.94941 29.8248 4.27922
-4.10473 30.0683 4.31648
-4.2627 30.3157 4.35442
-4.42348 30.5676 4.39312
-4.58816 30.8307 4.43355
-4.75512 31.0937 4.47407
-4.92516 31.3615 4.51542
-5.09844 31.6342 4.5576
-5.27488 31.9121 4.60067
-5.4548 32.1954 4.64463
-5.63812 32.4841 4.68951
-5.80109 32.6439 4.7159
-5.9323 32.6203 4.7159
-6.0634 32.5962 4.7159
-6.19438 32.5716 4.7159
-6.32523 32.5464 4.7159
-6.50113 32.7478 4.74884
-6.90258 34.0527 4.94203
-7.02863 33.9726 4.93447
-7.15434 33.8927 4.92702
-7.27957 33.8132 4.91967
-7.40457 33.7338 4.91241
-7.5291 33.6547 4.90526
-7.65336 33.5759 4.89821
-7.77723 33.4972 4.89126
-7.9007 33.4188 4.8844
-8.02387 33.3405 4.87765
-8.14672 33.2625 4.87099
-8.26922 33.1848 4.86442
-8.39137 33.1072 4.85796
-8.51324 33.0298 4.85159
-8.63473 32.9526 4.84531
-8.75594 32.8757 4.83913
-8.87687 32.7989 4.83304
-9.00488 32.7491 4.83101
-9.25785 33.1476 4.89524
-9.51777 33.5569 4.96129
-9.78477 33.9773 5.02922
-10.0591 34.4094 5.09912
-10.3413 34.8537 5.17108
-10.6315 35.3107 5.24518
-10.9302 35.781 5.32153
-12.5092 40.3684 6.01123
-12.6577 40.2741 6.00472
-12.8058 40.1801 5.99832
-12.9891 40.1959 6.00843
-13.137 40.102 6.00224
-13.2846 40.0083 5.99615
-13.432 39.9148 5.99018
-13.5789 39.8214 5.98431
-13.7257 39.7282 5.97855
-13.8721 39.6352 5.97289
-14.0184 39.5424 5.96735
-14.1642 39.4497 5.96191
-14.3099 39.3572 5.95658
-14.4161 39.1582 5.93519
-14.5608 39.0663 5.93008
-14.7054 38.9746 5.92508
-14.8496 38.883 5.92018
-15.0345 38.8971 5.93149
-15.1787 38.8055 5.92678
-15.3226 38.7141 5.92217
-15.4664 38.6228 5.91768
-15.6099 38.5316 5.91328
-15.7532 38.4407 5.90898
-15.8964 38.3498 5.90479
-16.0393 38.259 5.90069
-16.182 38.1684 5.8967
-16.3245 38.0779 5.89281
-16.4221 37.8844 5.87303
-16.5639 37.7943 5.86935
-16.7055 37.7045 5.86577
-16.8469 37.6146 5.86228
-16.9882 37.5249 5.8589
-17.3281 37.8698 5.92358
-18.0068 38.9387 6.10209
-18.1934 38.9306 6.11218
-18.3404 38.8372 6.10906
-18.4871 38.7441 6.10603
-18.6339 38.6509 6.10311
-18.7804 38.5578 6.10029
-18.9268 38.4649 6.09757
-19.073 38.372 6.09495
-19.2192 38.2792 6.09244
-19.3653 38.1865 6.09002
-19.5112 38.0938 6.0877
-19.657 38.0012 6.08549
-19.8027 37.9087 6.08337
-20.8064 39.4428 6.34292
-21.0213 39.4651 6.36003
-21.1734 39.3684 6.35813
-21.3255 39.2719 6.35633
-21.4774 39.1754 6.35463
-21.5643 38.9615 6.33395
-21.7157 38.8654 6.33247
-21.867 38.7693 6.33108
-22.0182 38.6733 6.3298
-23.9794 41.7268 6.84532
-26.5615 45.793 7.52982
-34.1548 58.3426 9.61587
-34.303 58.0591 9.59179
-34.432 57.7461 9.56287
-34.6639 57.6072 9.56287
-34.8103 57.3277 9.53962
-34.8882 56.9388 9.49817
-35.0328 56.6621 9.47543
-35.2907 56.5697 9.48362
-35.7626 56.8162 9.54898
-36.0431 56.7545 9.56287
-36.271 56.6091 9.56287
-36.4982 56.4628 9.56287
-36.725 56.3157 9.56287
-36.951 56.1676 9.56287
-37.1765 56.0186 9.56287
-37.4015 55.8687 9.56287
-37.6077 55.6912 9.55831
-37.8482 55.5645 9.56256
-38.3597 55.8317 9.63503
-38.879 56.103 9.70874
-39.3552 56.3052 9.77104
-39.499 56.03 9.75075
-39.6423 55.7558 9.73069
-39.7848 55.4828 9.71088
-39.9269 55.2109 9.6913
-40.2139 55.1396 9.70708
-40.6477 55.2664 9.75809
-41.3314 55.7251 9.86834
-41.9009 56.0209 9.95047
-42.4821 56.3245 10.0347
-43.179 56.7723 10.1453
-43.6749 56.9477 10.2079
-44.2868 57.2673 10.297
-44.9095 57.5927 10.3879
-45.5432 57.9237 10.4806
-46.1885 58.2608 10.5751
-46.8455 58.604 10.6715
-47.5145 58.9536 10.7698
-21.2497 23.1471 4.4694
-81.4321 36.9643 12.7201
-81.5062 36.6034 12.7085
-81.3518 36.1419 12.6617
-81.0178 35.6041 12.5873
-48.9034 21.257 7.58453
-82.1198 35.3035 12.7141
-81.7812 34.7691 12.6399
-81.502 34.2641 12.5753
-81.8654 34.0303 12.6102
-74.2829 30.5287 11.4232
-74.3921 30.2245 11.4212
-71.7198 28.8035 10.9931
-71.1782 28.2543 10.8926
-55.4762 21.7633 8.47619
-54.5761 21.1575 8.32561
-49.2598 18.8693 7.50295
-30.7443 11.6352 4.67563
-30.6646 11.4644 4.65648
-30.5862 11.2951 4.63763
-30.5087 11.1273 4.61907
-30.4324 10.9611 4.6008
-43.9734 15.639 6.6384
-48.0462 16.8702 7.24292
-48.1833 16.7011 7.2534
-48.3156 16.5297 7.26326
-28.4845 9.61727 4.27623
-28.3778 9.4543 4.25447
-28.2602 9.28914 4.23121
-28.1014 9.11195 4.20191
-27.9102 8.92605 4.16792
-27.406 8.64352 4.0874
-26.9216 8.37187 4.0101
-26.8757 8.2393 3.9983
-26.9461 8.14258 4.00388
-27.017 8.04555 4.00957
-27.0882 7.94832 4.01536
-27.1598 7.85086 4.02126
-27.2318 7.7532 4.02727
-27.3041 7.65531 4.03339
-27.3768 7.55711 4.03961
-27.45 7.45867 4.04595
-27.5235 7.36 4.05239
-27.5975 7.26102 4.05895
-27.6718 7.1618 4.06562
-27.7466 7.06227 4.07241
-27.7996 6.95687 4.07605
-27.8396 6.84805 4.07785
-27.8768 6.73848 4.0793
-27.8078 6.60355 4.06526
-27.7244 6.46617 4.04925
-27.6421 6.32992 4.03348
-27.5609 6.19484 4.01797
-27.2598 6.01211 3.97051
-26.9452 5.82926 3.92125
-28.7024 6.08875 4.17336
-28.814 5.99141 4.18605
-28.9264 5.89363 4.19891
-29.0397 5.79523 4.21194
-35.3998 6.91664 5.13035
-33.8242 6.46773 4.89819
-37.5973 7.03277 5.44046
-34.8655 6.37672 5.04141
-33.4784 5.9841 4.83733
-33.409 5.83316 4.82386
-33.34 5.68313 4.81056
-28.0573 4.66668 4.0456
-28.0137 4.54379 4.03664
-30.0864 4.75582 4.3325
-29.8458 4.59488 4.29516
-29.6096 4.43672 4.25857
-29.3777 4.28133 4.22271
-28.7371 4.07008 4.12823
-33.0345 4.54336 4.74294
-33.0532 4.41062 4.74304
-33.072 4.27785 4.74323
-32.1865 4.03188 4.61387
-31.9261 3.86898 4.57426
-31.9143 3.73746 4.57039
-29.3461 3.31719 4.20066
-29.2155 3.18355 4.18011
-29.0865 3.05121 4.15986
-28.9589 2.92023 4.1399
-28.8327 2.79047 4.12021
-28.7078 2.66195 4.10081
-28.5843 2.53461 4.08169
-28.3568 2.39957 4.04778
-28.0826 2.26273 4.00731
-27.8142 2.12859 3.96776
-27.5513 1.99707 3.92908
-27.2939 1.8682 3.89127
-27.0418 1.74176 3.85429
-26.7947 1.6177 3.81812
-26.5525 1.49602 3.78272
-26.3151 1.37652 3.74809
-26.0823 1.25918 3.71418
-25.8541 1.14402 3.68099
-58.7616 2.36352 8.36479
-25.2962 0.915547 3.60037
-24.5262 0.789023 3.49033
-24.4829 0.689141 3.48374
-24.485 0.590703 3.48367
-24.5571 0.493633 3.49362
-25.3357 0.407344 3.6041
-53.8713 0.649648 7.66301
-51.3244 0.412461 7.30042
-50.9598 0.204687 7.24839
-22.9591 0 3.00645
-22.8275 -0.0917578 2.98924
-22.6974 -0.182461 2.97227
-22.6676 -0.273359 2.96849
-22.6755 -0.364648 2.96969
-22.6834 -0.456016 2.97094
-22.6913 -0.547422 2.97224
-22.8382 -0.642812 2.9918
-53.5762 -1.72359 7.01932
-53.4266 -1.93383 7.00069
-53.4529 -2.14996 7.00522
-53.2667 -2.35695 6.98199
-53.4681 -2.58133 7.0097
-49.934 -2.61188 6.54768
-49.6612 -2.79781 6.51333
-29.2004 -1.76289 3.83069
-29.2977 -1.88703 3.84443
-29.382 -2.01102 3.85651
-29.4668 -2.13594 3.86875
-29.5525 -2.26156 3.88116
-29.6389 -2.38805 3.89373
-29.726 -2.51539 3.90648
-29.814 -2.64359 3.9194
-29.9027 -2.77266 3.93249
-29.9921 -2.90262 3.94576
-30.0825 -3.03348 3.95921
-25.2726 -2.65105 3.32755
-25.0502 -2.72961 3.29969
-25.0215 -2.82828 3.29738
-24.9928 -2.92687 3.29512
-24.9641 -3.02531 3.29291
-25.0182 -3.13395 3.30169
-25.1304 -3.25062 3.31818
-40.4186 -5.39359 5.33967
-40.0396 -5.50695 5.29247
-21.2823 -3.0143 2.81469
-21.1532 -3.08281 2.79923
-21.1159 -3.16406 2.79595
-21.1129 -3.25047 2.79726
-21.1098 -3.33695 2.79862
-21.1391 -3.42867 2.8043
-21.3301 -3.54773 2.8315
-42.2452 -7.20125 5.61174
-42.5494 -7.42918 5.65606
-25.1014 -4.4868 3.33908
-24.9852 -4.56973 3.32603
-24.9457 -4.66613 3.32324
-24.9737 -4.77547 3.32952
-42.9539 -8.3927 5.73108
-36.6822 -7.32055 4.89818
-36.5047 -7.43781 4.87843
-36.3288 -7.55422 4.85894
-36.1545 -7.66973 4.83972
-35.9818 -7.78437 4.82075
-35.8107 -7.8982 4.80204
-35.5273 -7.98562 4.7683
-35.1729 -8.05461 4.72505
-34.7011 -8.09348 4.66598
-35.2922 -8.38109 4.74997
-34.8762 -8.43055 4.6985
-33.6363 -8.27414 4.53591
-33.4502 -8.37109 4.51532
-31.877 -8.11371 4.30733
-18.8423 -4.87664 2.54866
-18.7825 -4.94184 2.54324
-18.723 -5.00672 2.53788
-18.6661 -5.07199 2.53291
-18.694 -5.16039 2.5395
-18.7221 -5.24922 2.54616
-18.7504 -5.33852 2.55289
-31.0584 -8.97797 4.23354
-30.9754 -9.08914 4.22718
-30.893 -9.19992 4.22095
-30.811 -9.31047 4.21483
-30.7296 -9.4209 4.20883
-23.3246 -7.25344 3.19858
-23.2381 -7.32922 3.19073
-23.2296 -7.42934 3.19365
-23.2312 -7.53289 3.198
-32.7842 -10.7763 4.519
-32.7647 -10.916 4.52232
-33.0188 -11.1484 4.56354
-33.032 -11.3009 4.5716
-34.0467 -11.8011 4.71857
-39.7253 -13.9486 5.51331
-40.9191 -14.5527 5.68706
-40.8621 -14.7177 5.68732
-40.8054 -14.8829 5.68769
-40.7487 -15.0481 5.6882
-19.9337 -7.45234 2.78675
-19.9777 -7.56047 2.79713
-20.0225 -7.66961 2.80769
-20.068 -7.77961 2.81844
-20.1144 -7.89086 2.8294
-20.1616 -8.00305 2.84053
-20.2097 -8.11629 2.85188
-20.2586 -8.23066 2.86343
-20.3084 -8.34617 2.87518
-20.359 -8.46281 2.88714
-20.4106 -8.58062 2.89933
-20.463 -8.69965 2.91173
-20.5165 -8.81992 2.92436
-20.5447 -8.93008 2.93347
-20.5037 -9.01039 2.93277
-20.4629 -9.09086 2.93214
-20.4224 -9.17129 2.93159
-20.3821 -9.25184 2.93111
-20.342 -9.33242 2.93071
-20.3021 -9.41305 2.93039
-20.2624 -9.49387 2.93015
-24.8086 -11.746 3.59436
-24.7615 -11.8458 3.5944
-24.7143 -11.9455 3.5945
-24.6672 -12.0453 3.59466
-24.7217 -12.1953 3.60971
-24.8531 -12.3845 3.63615
-34.3737 -17.3016 5.03918
-27.9989 -14.2341 4.113
-27.9055 -14.328 4.1077
-27.8123 -14.4218 4.10249
-27.8277 -14.572 4.11337
-27.8732 -14.7389 4.12881
-41.1131 -22.165 6.11623
-30.7379 -17.3777 4.62378
-30.5502 -17.4341 4.60606
-30.4809 -17.5573 4.60622
-30.4471 -17.7013 4.61183
-33.8792 -19.8793 5.14375
-33.577 -19.8838 5.10997
-29.2825 -17.4998 4.46705
-29.2803 -17.6586 4.47749
-29.2781 -17.8183 4.48809
-29.2764 -17.9788 4.49886
-29.2749 -18.1403 4.5098
-29.2737 -18.3028 4.5209
-28.3737 -17.8992 4.39299
-23.7903 -15.1422 3.69278
-23.6657 -15.1968 3.68289
-23.6067 -15.2934 3.68325
-23.606 -15.428 3.69278
-25.3508 -16.7143 3.97623
-25.2484 -16.7927 3.97072
-25.2518 -16.9418 3.98194
-25.2732 -17.1039 3.99612
-28.4654 -19.4311 4.51314
-29.3137 -20.1834 4.66045
-29.2817 -20.3354 4.66833
-29.2496 -20.4879 4.67632
-29.1946 -20.6248 4.68073
-29.1377 -20.7606 4.68495
-29.0808 -20.8969 4.68927
-29.0239 -21.0334 4.6937
-28.967 -21.1703 4.69821
-28.91 -21.3075 4.70283
-29.4957 -21.9227 4.81241
-28.872 -21.6398 4.72479
-28.8911 -21.8361 4.74225
-28.9106 -22.0339 4.75994
-28.9303 -22.2334 4.77786
-28.9502 -22.4344 4.79601
-28.9464 -22.6183 4.81041
-28.9318 -22.7948 4.82318
-25.0136 -19.8714 4.18327
-28.529 -22.8516 4.78649
-28.6855 -23.1668 4.82833
-28.7859 -23.4397 4.86106
-28.7096 -23.5702 4.86414
-28.6334 -23.7009 4.86732
-28.5571 -23.8319 4.87061
-28.4809 -23.9632 4.874
-28.4047 -24.0947 4.87749
-28.3285 -24.2266 4.88109
-28.2523 -24.3587 4.8848
-28.1571 -24.4747 4.88531
-28.0261 -24.5593 4.87967
-27.8943 -24.6427 4.87393
-27.7629 -24.726 4.86829
-27.6319 -24.8093 4.86278
-27.5013 -24.8924 4.85737
-27.3712 -24.9755 4.85208
-27.2414 -25.0586 4.84688
-27.112 -25.1415 4.84182
-63.8018 -59.6441 11.4369
-63.5039 -59.8459 11.4265
-63.2067 -60.0474 11.4164
-62.9102 -60.2486 11.4064
-62.6139 -60.4493 11.3967
-62.3005 -60.6325 11.3839
-62.0259 -60.8526 11.3784
-61.7862 -61.107 11.3794
-61.5466 -61.3613 11.3806
-61.3066 -61.6155 11.3819
-61.0651 -61.868 11.3831
-60.8235 -62.1208 11.3846
-4.7793 -4.92062 0.898257
-4.63809 -4.81383 0.875345
-4.61289 -4.82641 0.874243
-4.59703 -4.84859 0.874923
-4.59637 -4.88719 0.878528
-4.6525 -4.98688 0.893092
-4.62734 -5 0.89211
-4.60223 -5.01316 0.891143
-4.58793 -5.03805 0.89228
-4.63793 -5.1343 0.906018
-4.66519 -5.20641 0.915422
-58.9964 -66.3757 11.6288
-58.9076 -66.8148 11.6642
