ply
format ascii 1.0
comment Created by Open3D
element vertex 1922
property float x
property float y
property float z
end_header
-8.42484 12.262 1.94815
-8.45246 12.197 1.94318
-8.47992 12.1321 1.93827
-8.50727 12.0677 1.93343
-8.53453 12.0036 1.92864
-8.56164 11.9398 1.9239
-8.58863 11.8763 1.91922
-8.62203 11.8221 1.91605
-8.65676 11.77 1.91324
-8.69145 11.7182 1.91048
-8.72602 11.6665 1.90775
-8.76047 11.615 1.90506
-8.79488 11.5636 1.90242
-8.82922 11.5124 1.89981
-8.86344 11.4613 1.89725
-8.89758 11.4104 1.89473
-8.93168 11.3596 1.89225
-8.96566 11.309 1.88981
-8.99969 11.2586 1.88741
-9.03351 11.2083 1.88505
-9.06734 11.1581 1.88273
-9.10109 11.1081 1.88045
-9.13473 11.0582 1.8782
-9.16836 11.0085 1.876
-9.20187 10.9589 1.87383
-9.23535 10.9094 1.8717
-9.26879 10.86 1.86962
-9.30215 10.8108 1.86756
-9.33543 10.7617 1.86555
-9.36871 10.7127 1.86357
-9.40187 10.6638 1.86164
-9.43504 10.6151 1.85973
-9.46812 10.5665 1.85787
-9.50113 10.518 1.85604
-9.53414 10.4696 1.85425
-9.56711 10.4213 1.85249
-9.60437 10.3778 1.85162
-9.64672 10.3399 1.85175
-9.68906 10.302 1.85192
-9.73145 10.264 1.85211
-9.77379 10.2261 1.85234
-9.81625 10.1882 1.8526
-9.85867 10.1502 1.8529
-9.90113 10.1123 1.85322
-9.94363 10.0743 1.85358
-9.98617 10.0364 1.85397
-10.0287 9.99848 1.8544
-10.0713 9.96055 1.85486
-10.114 9.92262 1.85535
-10.1566 9.88465 1.85587
-10.1993 9.84668 1.85642
-10.2421 9.80871 1.85701
-10.2848 9.7707 1.85763
-10.3277 9.73273 1.85828
-10.3705 9.69469 1.85897
-10.4134 9.65668 1.85969
-10.4564 9.61863 1.86044
-10.4994 9.58055 1.86123
-10.5425 9.54246 1.86205
-10.5856 9.50434 1.8629
-10.6299 9.46719 1.86397
-10.7002 9.45297 1.86962
-10.7709 9.43863 1.87534
-10.8421 9.42426 1.88113
-10.9138 9.4098 1.88699
-10.986 9.39527 1.89291
-11.0586 9.3807 1.89892
-11.1317 9.36602 1.90499
-11.2053 9.35129 1.91114
-11.2795 9.33644 1.91736
-11.3541 9.3216 1.92367
-11.4292 9.3066 1.93004
-11.5049 9.29156 1.9365
-11.5811 9.27645 1.94303
-11.6578 9.26121 1.94964
-11.7352 9.24594 1.95634
-11.8127 9.23035 1.96308
-11.8904 9.21426 1.9698
-11.9686 9.19809 1.97662
-12.0473 9.18184 1.98352
-12.1267 9.16547 1.99049
-12.2066 9.14902 1.99756
-12.2871 9.1325 2.00472
-12.3682 9.11578 2.01196
-12.45 9.0991 2.0193
-12.5324 9.08223 2.02672
-12.6154 9.06527 2.03424
-12.6959 9.0459 2.04133
-12.7734 9.02398 2.04794
-12.8514 9.00184 2.05463
-12.93 8.97957 2.0614
-13.0091 8.95723 2.06826
-13.0887 8.93473 2.07519
-13.169 8.91211 2.08222
-13.2498 8.88934 2.08933
-13.3312 8.86645 2.09652
-13.4132 8.8434 2.10381
-13.4957 8.8202 2.11118
-13.5789 8.79691 2.11865
-13.6627 8.7734 2.1262
-13.7472 8.7498 2.13386
-13.8323 8.72602 2.1416
-13.918 8.70207 2.14944
-14.0044 8.67801 2.15738
-14.0915 8.65375 2.16542
-14.1793 8.62934 2.17356
-14.2677 8.6048 2.1818
-14.3569 8.58 2.19014
-14.4468 8.55512 2.19858
-14.5413 8.53234 2.20774
-14.6606 8.52332 2.22063
-14.773 8.50941 2.23247
-14.8838 8.49371 2.24402
-14.9958 8.47785 2.25575
-15.109 8.46191 2.26764
-15.2234 8.44574 2.2797
-15.3392 8.42953 2.29194
-15.4562 8.41313 2.30436
-15.5746 8.39656 2.31696
-15.6943 8.37988 2.32974
-15.8178 8.36422 2.34305
-15.9517 8.35316 2.3579
-16.0873 8.34199 2.37296
-16.2247 8.33062 2.38828
-16.3639 8.31918 2.40383
-16.5051 8.30754 2.41964
-16.6481 8.29586 2.43569
-16.8015 8.28816 2.45324
-16.9521 8.27789 2.47036
-17.1048 8.26742 2.48774
-17.2596 8.25684 2.50541
-17.4167 8.24613 2.52338
-17.5761 8.23527 2.54166
-17.738 8.22434 2.56027
-17.9021 8.21316 2.57918
-18.0689 8.20187 2.59842
-18.2381 8.19051 2.61802
-18.41 8.17891 2.63795
-18.5846 8.16715 2.65824
-18.7639 8.15609 2.67917
-19.0008 8.1684 2.70829
-19.2119 8.16785 2.73367
-19.427 8.16719 2.75958
-19.6463 8.16664 2.78604
-19.8698 8.16605 2.81307
-20.0979 8.16551 2.84069
-20.3305 8.16496 2.86891
-20.5679 8.16441 2.89774
-20.8263 8.1702 2.9295
-21.3034 8.25875 2.99192
-21.82 8.35824 3.05973
-26.5238 10.0379 3.71364
-27.0242 10.1034 3.77799
-27.528 10.1658 3.84267
-28.0276 10.2224 3.90663
-28.5441 10.281 3.97285
-29.0909 10.346 4.04312
-29.5749 10.3845 4.10456
-35.5919 12.3368 4.93272
-35.5069 12.1477 4.91414
-35.591 12.0169 4.91905
-35.6753 11.8858 4.92405
-35.9866 11.829 4.96042
-61.133 19.8225 8.41556
-59.1047 18.9028 8.12582
-50.2143 15.8373 6.89475
-50.2468 15.6257 6.89053
-50.2796 15.4145 6.88647
-50.3126 15.2036 6.88256
-50.3457 14.993 6.8788
-50.3792 14.7828 6.87519
-50.4128 14.5729 6.87174
-50.4467 14.3632 6.86843
-50.4809 14.1537 6.86528
-50.5153 13.9446 6.86228
-50.5499 13.7357 6.85942
-50.5848 13.527 6.85672
-50.6198 13.3186 6.85417
-50.6552 13.1104 6.85176
-50.6908 12.9025 6.8495
-50.7145 12.6916 6.84575
-44.5997 10.9709 6.01434
-44.4058 10.7341 5.98233
-44.3855 10.5405 5.97382
-44.5436 10.3891 5.98944
-67.6669 15.4957 9.09022
-67.7615 15.2309 9.09461
-67.618 14.9133 9.06724
-67.4761 14.5979 9.04027
-91.3604 19.3808 12.2297
-91.45 19.0159 12.2313
-76.4857 15.5838 10.2214
-71.957 14.3602 9.60842
-71.6904 14.0075 9.56523
-71.3416 13.6419 9.51129
-70.9969 13.2804 9.45815
-71.8878 13.1481 9.56971
-71.4286 12.7676 9.50169
-71.8005 12.5364 9.54437
-72.0881 12.2882 9.57597
-61.4909 10.2276 8.16275
-61.1993 9.92641 8.11868
-61.2471 9.68168 8.1198
-70.1373 10.7982 9.29253
-10.6581 1.59707 1.41123
-10.6672 1.55461 1.41161
-70.0662 9.92375 9.26659
-69.93 9.61789 9.24339
-69.7951 9.31359 9.22054
-79.015 10.2207 10.433
-70.7074 8.85734 9.33134
-70.7907 8.57887 9.33771
-70.8743 8.30004 9.34426
-69.3615 7.84039 9.14057
-69.3125 7.55273 9.13005
-16.8755 1.77027 2.22194
-69.1418 6.97215 9.09989
-71.7923 6.94797 9.44496
-72.328 6.70648 9.51183
-72.5331 6.13773 9.532
-70.3297 -9.09734 8.48806
-65.4547 -8.73445 7.90387
-65.5309 -9.01281 7.91738
-65.0456 -9.2127 7.86316
-65.03 -9.4773 7.86582
-65.0144 -9.74211 7.8686
-64.9986 -10.007 7.87149
-63.9827 -10.1141 7.75332
-64.4474 -10.4533 7.81467
-64.0536 -10.6538 7.77205
-63.4499 -10.8157 7.70401
-64.0653 -11.1859 7.78413
-63.6328 -11.3741 7.73707
-63.8029 -11.6694 7.7634
-38.0237 -7.1125 4.63008
-63.7727 -12.1946 7.7714
-63.8014 -12.4661 7.78094
-66.6077 -13.2926 8.12963
-66.352 -13.5192 8.10499
-44.5945 -9.27297 5.45179
-44.635 -9.46871 5.46134
-44.6755 -9.66516 5.47102
-44.7163 -9.86234 5.48082
-44.7572 -10.0602 5.49075
-44.7983 -10.2588 5.5008
-44.8395 -10.4581 5.51099
-44.2259 -10.5026 5.44072
-44.5332 -10.7649 5.4838
-44.8455 -11.0314 5.52768
-45.1629 -11.3022 5.57236
-45.4857 -11.5775 5.61787
-42.7484 -11.0639 5.28524
-42.8332 -11.2698 5.30129
-42.9186 -11.477 5.31753
-43.0046 -11.6854 5.33396
-43.0911 -11.8951 5.35058
-43.1782 -12.1062 5.36739
-43.0337 -12.2524 5.3555
-43.417 -12.5504 5.40945
-43.1088 -12.6493 5.37733
-46.8688 -13.9575 5.85331
-43.4856 -13.1405 5.43734
-41.9967 -12.8752 5.25761
-41.988 -13.0573 5.26304
-41.9792 -13.2399 5.26857
-41.9704 -13.4229 5.27419
-41.9615 -13.6062 5.2799
-41.9525 -13.7898 5.2857
-41.9435 -13.974 5.2916
-41.9345 -14.1585 5.2976
-41.9253 -14.3434 5.30369
-42.9289 -14.8798 5.43816
-39.3453 -13.8151 4.99119
-38.8251 -13.808 4.9322
-38.9221 -14.019 4.95165
-39.02 -14.2317 4.97133
-38.8919 -14.3624 4.96233
-38.6479 -14.4491 4.93857
-38.4346 -14.5458 4.91875
-38.209 -14.6362 4.89737
-37.9853 -14.7259 4.87625
-37.7635 -14.8149 4.85538
-38.6244 -15.332 4.97396
-38.169 -15.3292 4.9232
-37.7229 -15.3263 4.87356
-39.0519 -16.0495 5.05356
-38.9628 -16.1962 5.05041
-38.8736 -16.3428 5.04734
-38.8217 -16.5049 5.04917
-38.6783 -16.6279 5.03916
-38.5354 -16.7503 5.02928
-38.3931 -16.8723 5.01952
-41.6953 -18.5238 5.46094
-41.8218 -18.7816 5.48736
-41.2584 -18.7283 5.42327
-42.0785 -19.305 5.54122
-41.9169 -19.4352 5.53018
-41.7798 -19.5761 5.52244
-41.7247 -19.7551 5.52561
-41.6695 -19.9345 5.52886
-40.5015 -19.5762 5.38428
-40.2821 -19.6703 5.36559
-40.0643 -19.7638 5.34712
-41.7757 -20.8172 5.58665
-41.7126 -20.9955 5.58945
-41.6494 -21.174 5.59235
-64.9694 -33.3588 8.7415
-65.109 -33.762 8.77848
-65.1112 -34.096 8.79718
-64.714 -34.2202 8.76204
-64.2255 -34.2929 8.71448
-63.6489 -34.3146 8.65489
-63.5411 -34.5869 8.65907
-64.4639 -35.4258 8.80416
-64.4379 -35.7496 8.82018
-64.4119 -36.0745 8.83638
-63.6828 -36.0033 8.75616
-63.7181 -36.362 8.78104
-45.6428 -26.2908 6.30459
-45.5214 -26.4652 6.30246
-45.4001 -26.6393 6.30043
-45.2787 -26.8134 6.2985
-44.8646 -26.8123 6.25583
-44.9241 -27.0936 6.27927
-44.9147 -27.3347 6.29327
-44.2515 -27.1756 6.21561
-43.5676 -26.9973 6.13473
-43.8057 -27.3892 6.18371
-43.6637 -27.5452 6.17925
-43.5219 -27.7009 6.17489
-43.3803 -27.8564 6.17064
-41.7375 -27.0392 5.95237
-41.7744 -27.3021 5.97324
-41.8117 -27.5669 5.99436
-41.8492 -27.8337 6.01574
-41.8871 -28.1024 6.03737
-41.9252 -28.373 6.05926
-41.9165 -28.6135 6.07458
-41.9018 -28.8511 6.0892
-41.6681 -28.9377 6.07209
-47.4071 -33.2066 6.92781
-47.3519 -33.4526 6.93934
-47.2965 -33.6993 6.95102
-45.1048 -32.4118 6.648
-44.7479 -32.4289 6.61457
-47.1293 -34.4444 6.98699
-47.0731 -34.6946 6.99928
-45.0552 -33.4877 6.7192
-42.2608 -32.4785 6.37953
-41.9466 -32.5061 6.35177
-41.6349 -32.5332 6.32432
-39.4011 -31.0436 6.00391
-39.0364 -31.0115 5.9673
-38.7065 -31.004 5.93587
-38.8921 -31.4102 5.98366
-38.8258 -31.6154 5.99296
-38.6131 -31.7011 5.97974
-38.4013 -31.7865 5.96668
-38.1904 -31.8716 5.95378
-37.9805 -31.9562 5.94103
-38.0251 -32.2557 5.96824
-37.7135 -32.253 5.93963
-37.4048 -32.2502 5.91138
-39.1627 -34.0414 6.21079
-38.7089 -33.921 6.16039
-38.2419 -33.7845 6.10763
-40.87 -36.3998 6.55069
-40.7946 -36.6279 6.56215
-40.6274 -36.7737 6.55897
-40.4055 -36.8695 6.54703
-40.1845 -36.965 6.53524
-39.9642 -37.06 6.5236
-39.7448 -37.1548 6.5121
-39.5261 -37.2493 6.50076
-41.8621 -39.7697 6.91119
-60.7668 -58.1958 10.0708
-60.1126 -58.0345 10.001
-59.9352 -58.3305 10.0104
-61.3548 -60.1942 10.2878
-61.3809 -60.7061 10.333
-60.8955 -60.7122 10.2923
-61.2341 -61.5426 10.3913
-61.0745 -61.8777 10.4063
-60.9144 -62.2138 10.4216
-49.1152 -57.0812 9.01321
-47.0463 -55.1235 8.67414
-46.8212 -55.3084 8.67356
-45.7617 -54.4996 8.5178
-45.8696 -55.0762 8.57903
-45.9564 -55.6338 8.63702
-45.9204 -56.0475 8.67254
-45.3501 -55.8076 8.60713
-45.2598 -56.1562 8.63276
-44.9886 -56.2811 8.62411
-44.7178 -56.4059 8.6156
-44.088 -56.0731 8.53763
-43.7071 -56.0509 8.50743
-42.6868 -55.1986 8.35195
-42.5124 -55.432 8.36135
-42.0678 -55.3113 8.31757
-41.1266 -54.5274 8.17475
-41.2602 -55.1645 8.24533
-40.6727 -54.8372 8.17192
-40.6927 -55.3277 8.22055
-40.1577 -55.0626 8.15712
-40.116 -55.4724 8.19388
-40.0739 -55.886 8.2311
-39.9329 -56.1647 8.24845
-39.1943 -55.5978 8.14198
-39.2517 -56.1572 8.20074
-39.1416 -56.482 8.22512
-38.8788 -56.5873 8.21762
-38.7002 -56.8152 8.22807
-38.3775 -56.8312 8.20797
-38.549 -57.5829 8.29409
-40.2376 -60.6311 8.70978
-40.6552 -61.7981 8.85387
-40.6666 -62.3601 8.91088
-39.8078 -61.5828 8.77689
-39.5433 -61.7163 8.77318
-39.2789 -61.8497 8.76963
-39.3914 -62.5813 8.85085
-39.0481 -62.5926 8.83016
-38.8916 -62.9034 8.85189
-40.8272 -66.6314 9.35333
-46.2326 -76.1385 10.6617
-43.9165 -72.984 10.1952
-43.6117 -73.1414 10.1926
-43.1701 -73.0669 10.1579
-42.608 -72.7822 10.0945
-42.5742 -73.3996 10.1563
-42.2804 -73.5729 10.1567
-41.9841 -73.7419 10.1566
-41.6878 -73.9109 10.1567
-40.8938 -73.1893 10.0349
-41.0954 -74.2495 10.1575
-40.7992 -74.419 10.1582
-41.0946 -75.6776 10.3073
-40.7529 -75.7732 10.298
-40.4118 -75.8686 10.2888
-40.0713 -75.9637 10.2797
-39.5764 -75.7621 10.2308
-39.3222 -76.0185 10.244
-39.053 -76.2477 10.2537
-39.9304 -78.7392 10.5671
-39.5373 -78.7472 10.5467
-40.349 -81.1761 10.8502
-3.10537 -24.9936 3.01455
9.81394 -8.15672 1.5274
9.80281 -8.08105 1.52061
9.77035 -7.98855 1.51058
9.76684 -7.92039 1.5051
9.77332 -7.86074 1.50122
9.77289 -7.7959 1.49633
9.77246 -7.73148 1.49149
9.77207 -7.66746 1.48671
9.7716 -7.60387 1.48198
9.77121 -7.54066 1.47731
9.77129 -7.47824 1.47277
9.7718 -7.41656 1.46834
9.77227 -7.3552 1.46395
9.77273 -7.29418 1.45962
9.7732 -7.23355 1.45534
9.77371 -7.17328 1.4511
9.77527 -7.11414 1.44708
9.78086 -7.05824 1.44369
9.78644 -7.00258 1.44035
9.79187 -6.94715 1.43703
9.79734 -6.89195 1.43375
9.80266 -6.83699 1.4305
6.68566 -4.62316 0.972913
6.69168 -4.5877 0.971103
6.71617 -4.56488 0.971982
9.75809 -5.18512 1.32262
9.77516 -5.14387 1.32212
9.77574 -2.46727 1.20678
9.7609 -2.42184 1.20373
9.77656 -2.38402 1.20447
9.77777 0.294922 1.17086
9.76184 0.333711 1.1691
9.77707 0.373594 1.17109
9.82461 3.03363 1.23073
9.77773 3.06227 1.22638
9.76527 3.10156 1.22637
9.82953 5.7943 1.36572
9.78191 5.81934 1.36234
9.76793 5.8643 1.36366
9.82719 6.67941 1.42222
9.82207 6.73379 1.42538
9.81684 6.78844 1.42857
9.8116 6.84324 1.4318
9.80629 6.89836 1.43506
9.8009 6.95363 1.43835
9.79547 7.00914 1.44168
9.79004 7.06492 1.44505
9.78543 7.12164 1.44859
9.78508 7.18168 1.45279
9.78469 7.24211 1.45705
9.78434 7.30289 1.46135
9.78395 7.36402 1.4657
9.78355 7.42555 1.4701
9.78312 7.48742 1.47456
9.78351 7.55027 1.47918
9.78406 7.61363 1.48387
9.78457 7.67738 1.48862
9.78512 7.74156 1.49342
9.78566 7.80613 1.49828
9.78742 7.87211 1.50338
9.7982 7.94586 1.50994
9.80918 8.02039 1.51658
9.82031 8.09555 1.52332
9.83156 8.17148 1.53015
9.81258 8.56406 1.5589
9.77578 8.60145 1.55853
6.2775 8.79168 1.29302
6.23809 8.81117 1.29218
6.28516 8.95379 1.30938
6.2316 8.95379 1.30571
6.17836 8.95383 1.30208
6.14809 8.98707 1.30331
6.14848 9.06566 1.31111
6.14078 9.13316 1.31729
26.3663 53.8575 7.17735
25.8998 53.4476 7.1088
25.6196 53.4155 7.09078
25.1758 53.0358 7.02688
25.0255 53.271 7.04466
24.9355 53.6387 7.07997
24.7576 53.8208 7.09082
24.6559 54.1723 7.124
24.4536 54.3059 7.1286
29.2622 65.6884 8.60726
28.9416 65.6775 8.59053
28.6555 65.7432 8.58398
28.4304 65.9495 8.59591
28.2717 66.3134 8.62847
28.3592 67.267 8.73764
28.024 67.9939 8.80248
27.7734 68.1625 8.80978
25.5152 64.8477 8.34098
24.6829 63.4803 8.15227
24.224 63.0493 8.08435
23.9577 63.113 8.08011
23.685 63.1585 8.07368
23.3948 63.1557 8.06123
23.1018 63.1429 8.04768
22.8099 63.1304 8.03432
22.519 63.118 8.02117
22.2927 63.2864 8.03111
20.4257 58.7384 7.44348
20.0887 58.5264 7.40633
19.7193 58.2116 7.35639
19.5637 58.5251 7.38601
19.2359 58.3232 7.35071
18.9112 58.1233 7.31589
18.6078 57.982 7.28863
18.4055 58.1539 7.30088
18.1983 58.3132 7.31163
17.9907 58.4733 7.32258
17.7825 58.6343 7.33373
17.8678 59.7798 7.46796
17.6886 60.0591 7.49391
20.2239 69.7002 8.68667
19.777 69.1979 8.61409
19.5607 69.4973 8.64151
19.303 69.6541 8.65128
17.4534 63.9779 7.93752
17.1775 63.9784 7.92894
16.9021 63.9789 7.92053
16.6275 63.9796 7.91228
15.5095 60.6789 7.4963
15.2955 60.8602 7.51105
15.066 60.9828 7.51866
15.5309 63.9682 7.87896
15.2494 63.9284 7.86644
14.9609 63.8553 7.84998
14.7464 64.0988 7.87257
14.5375 64.374 7.89913
14.3177 64.6084 7.92077
14.0932 64.8281 7.94069
13.8677 65.0492 7.96087
13.641 65.2715 7.98131
13.4131 65.4952 8.002
13.1842 65.7202 8.02294
13.7162 69.827 8.51747
12.6486 65.7886 8.01862
12.5183 66.5529 8.10558
12.3853 67.3349 8.19469
12.4611 69.312 8.42913
11.943 67.9981 8.26346
-2.20379 37.1227 4.45113
-10.0452 89.6735 10.8004
-10.4068 89.6427 10.8016
-10.7684 89.6118 10.803
-11.1302 89.581 10.8046
-11.4921 89.5501 10.8064
-11.8541 89.5191 10.8083
-12.2163 89.4882 10.8104
-12.5785 89.4573 10.8127
-12.941 89.4262 10.8151
-13.3036 89.3952 10.8178
-13.6664 89.3642 10.8206
-14.0294 89.3331 10.8235
-14.3926 89.302 10.8267
-14.756 89.2708 10.83
-15.1196 89.2396 10.8335
-15.2054 87.6059 10.6425
-15.532 87.4011 10.6251
-15.8577 87.1977 10.6081
-16.1826 86.9958 10.5913
-16.5066 86.7953 10.5749
-16.8875 86.8937 10.5951
-17.308 87.1842 10.6389
-17.6849 87.2453 10.6549
-18.0632 87.3071 10.6713
-18.4427 87.3697 10.6879
-18.798 87.3146 10.6903
-19.0888 86.965 10.6568
-19.3779 86.618 10.6238
-19.6654 86.2736 10.5911
-19.9512 85.9316 10.5589
-20.2357 85.594 10.5273
-20.5754 85.4941 10.5251
-20.9136 85.3888 10.5224
-21.2556 85.2999 10.5219
-21.5988 85.216 10.5222
-21.9423 85.1321 10.5227
-22.2856 85.0484 10.5233
-22.6291 84.9649 10.5241
-22.9483 84.7912 10.514
-23.2475 84.5474 10.4952
-23.5456 84.3046 10.4768
-23.8428 84.0627 10.4585
-9.22355 32.0284 3.98935
-9.28117 31.7481 3.95905
-9.33809 31.4724 3.92931
-9.39422 31.201 3.90012
-9.44953 30.9339 3.87144
-9.48055 30.5946 3.83371
-9.40566 29.9268 3.75476
-8.52047 26.7341 3.35845
-8.51738 26.3578 3.31544
-8.52613 26.0268 3.2781
-8.53473 25.7034 3.24166
-8.54316 25.3871 3.20607
-8.55145 25.0777 3.17132
-8.55957 24.7752 3.13738
-8.52672 24.3622 3.0894
-8.46039 23.8646 3.03059
-8.3966 23.3858 2.97404
-8.3352 22.9245 2.91962
-8.33523 22.6409 2.88774
-8.22316 22.0625 2.81816
-8.08504 21.4283 2.74128
-8.00621 20.9638 2.68596
-7.98105 20.6486 2.64966
-7.98137 20.405 2.62251
-7.99227 20.1931 2.59938
-8.00289 19.9849 2.5767
-8.0134 19.7804 2.55446
-8.02375 19.5793 2.53264
-8.03395 19.3818 2.51124
-8.04395 19.1875 2.49024
-8.05102 18.9899 2.46877
-8.05277 18.7836 2.44614
-8.05449 18.581 2.42395
-8.05844 18.3871 2.40287
-8.0632 18.1987 2.38246
-8.06789 18.0134 2.36243
-8.0725 17.8312 2.34278
-8.07707 17.6521 2.32349
-8.0816 17.4759 2.30456
-8.08605 17.3027 2.28598
-8.09043 17.1322 2.26773
-8.08828 16.9507 2.24801
-8.04727 16.6918 2.21793
-8.015 16.4555 2.19079
-8.01246 16.2837 2.17219
-8.01 16.1148 2.15395
-8.00762 15.9489 2.13605
-8.00527 15.7857 2.11849
-8.00305 15.6252 2.10124
-8.00082 15.4673 2.08433
-7.99867 15.312 2.0677
-7.99656 15.1591 2.05139
-7.99687 15.0132 2.03598
-8.00238 14.879 2.02213
-8.00781 14.7467 2.0085
-8.01316 14.6162 1.9951
-8.01848 14.4874 1.98191
-8.03059 14.3726 1.9706
-8.04449 14.2625 1.95993
-8.05828 14.1537 1.94941
-8.07195 14.0461 1.93903
-8.08543 13.9395 1.9288
-8.09879 13.8341 1.9187
-8.11207 13.7299 1.90875
-8.1252 13.6267 1.89894
-8.1382 13.5246 1.88926
-8.15105 13.4236 1.87971
-8.16387 13.3237 1.87029
-8.17648 13.2246 1.86099
-8.18902 13.1266 1.85183
-8.20152 13.0297 1.84278
-8.21383 12.9337 1.83385
-8.22609 12.8386 1.82505
-8.23586 12.7409 1.81584
-8.24285 12.6399 1.80616
-8.24977 12.54 1.79662
-8.2566 12.4412 1.7872
-8.28164 12.3707 1.78184
-8.30961 12.3052 1.77721
-8.33746 12.2401 1.77262
-8.3652 12.1753 1.76809
-8.39277 12.1108 1.76362
-8.4202 12.0467 1.75919
-8.4475 11.9829 1.75482
-8.47473 11.9195 1.75051
-8.5018 11.8563 1.74624
-8.52875 11.7935 1.74202
-8.55559 11.731 1.73786
-8.5823 11.6688 1.73374
-8.61344 11.6131 1.73059
-8.64781 11.562 1.72814
-8.68211 11.5111 1.72573
-8.71629 11.4602 1.72336
-8.75039 11.4096 1.72102
-8.78445 11.3591 1.71872
-8.81844 11.3088 1.71646
-8.8523 11.2587 1.71423
-8.88609 11.2086 1.71204
-8.91988 11.1588 1.70988
-8.95352 11.109 1.70776
-8.98711 11.0594 1.70568
-9.02066 11.01 1.70363
-9.0541 10.9607 1.70162
-9.08754 10.9114 1.69963
-9.1209 10.8624 1.69769
-9.15414 10.8135 1.69578
-9.18738 10.7646 1.6939
-9.22051 10.7159 1.69206
-9.25363 10.6674 1.69025
-9.28668 10.6189 1.68848
-9.31969 10.5706 1.68673
-9.35258 10.5223 1.68503
-9.38551 10.4743 1.68335
-9.41832 10.4262 1.68171
-9.45437 10.382 1.68068
-9.49637 10.3443 1.68075
-9.5384 10.3066 1.68083
-9.58043 10.2689 1.68096
-9.62254 10.2312 1.6811
-9.66457 10.1935 1.68128
-9.70664 10.1558 1.68149
-9.74879 10.1181 1.68172
-9.7909 10.0804 1.68199
-9.83309 10.0428 1.68228
-9.87527 10.0051 1.68261
-9.9175 9.96738 1.68296
-9.95973 9.92973 1.68334
-10.002 9.89199 1.68375
-10.0443 9.8543 1.68419
-10.0867 9.8166 1.68467
-10.1291 9.77887 1.68517
-10.1715 9.74113 1.68569
-10.2139 9.70332 1.68625
-10.2565 9.66562 1.68685
-10.299 9.62781 1.68746
-10.3416 9.59004 1.68811
-10.3842 9.55223 1.68879
-10.427 9.51441 1.6895
-10.4696 9.47656 1.69023
-10.5125 9.43871 1.691
-10.5553 9.40074 1.6918
-10.5982 9.36281 1.69263
-10.6499 9.33258 1.69488
-10.72 9.31801 1.70005
-10.7904 9.3034 1.70529
-10.8614 9.28871 1.71059
-10.9328 9.27394 1.71595
-11.0046 9.2591 1.72137
-11.077 9.24422 1.72686
-11.1499 9.22922 1.73243
-11.2232 9.21414 1.73805
-11.2971 9.19898 1.74374
-11.3714 9.18375 1.74951
-11.4462 9.16844 1.75534
-11.5217 9.15305 1.76125
-11.5976 9.13758 1.76723
-11.6741 9.12199 1.77328
-11.7511 9.10633 1.7794
-11.8287 9.09055 1.7856
-11.9068 9.07473 1.79188
-11.9853 9.05867 1.79819
-12.0638 9.04195 1.8045
-12.1429 9.0252 1.81089
-12.2226 9.00844 1.81735
-12.3028 8.99145 1.8239
-12.3837 8.97445 1.83053
-12.4652 8.9573 1.83723
-12.5473 8.94004 1.84402
-12.63 8.92266 1.8509
-12.7091 8.90215 1.85723
-12.7864 8.87984 1.86328
-12.8641 8.85738 1.86941
-12.9423 8.83477 1.8756
-13.0212 8.81211 1.88188
-13.1006 8.78926 1.88824
-13.1805 8.76629 1.89467
-13.2611 8.74316 1.90118
-13.3422 8.71984 1.90776
-13.4239 8.69648 1.91443
-13.5062 8.67293 1.92118
-13.5891 8.64922 1.92802
-13.6727 8.62535 1.93493
-13.7568 8.60133 1.94194
-13.8416 8.57715 1.94902
-13.9271 8.55281 1.9562
-14.0132 8.52832 1.96347
-14.1 8.50367 1.97082
-14.1875 8.47879 1.97827
-14.2757 8.45383 1.98581
-14.3646 8.42863 1.99344
-14.4541 8.40328 2.00117
-14.5445 8.37773 2.009
-14.638 8.35344 2.01727
-14.7485 8.33809 2.02786
-14.8687 8.32734 2.03976
-14.9902 8.31645 2.05184
-15.1134 8.30543 2.0641
-15.2379 8.2943 2.07654
-15.3641 8.28312 2.08918
-15.4918 8.27172 2.10201
-15.6211 8.26023 2.11503
-15.7521 8.24867 2.12826
-15.8848 8.23691 2.14169
-16.0191 8.22508 2.15533
-16.1553 8.21309 2.16919
-16.2932 8.20094 2.18327
-16.433 8.18871 2.19757
-16.5747 8.17629 2.21211
-16.7183 8.16371 2.22688
-16.881 8.1593 2.24416
-17.037 8.15035 2.26052
-17.1904 8.13906 2.27652
-17.3462 8.12754 2.2928
-17.5042 8.11594 2.30935
-17.6645 8.10414 2.32619
-17.8273 8.09223 2.34331
-17.9925 8.08016 2.36075
-18.1602 8.06793 2.37848
-18.3305 8.05551 2.39652
-18.5034 8.04289 2.41489
-18.6791 8.03016 2.43358
-18.8937 8.03254 2.45731
-19.132 8.0432 2.48408
-19.3451 8.04144 2.50753
-19.5624 8.03973 2.53149
-19.7839 8.03789 2.55595
-20.0098 8.03613 2.58094
-20.2402 8.03434 2.60647
-20.4753 8.0325 2.63257
-20.7151 8.03066 2.65923
-21.0929 8.07969 2.70353
-21.5989 8.17418 2.76416
-22.1282 8.27297 2.82762
-26.5521 9.80543 3.38785
-27.0561 9.86812 3.44707
-27.5866 9.93613 3.50954
-28.0871 9.98902 3.56808
-28.6047 10.0438 3.62868
-29.2423 10.1358 3.70437
-29.7301 10.1711 3.76094
-30.2332 10.2077 3.81937
-30.7523 10.2455 3.87971
-31.1395 10.2355 3.92333
-31.677 10.2713 3.98582
-32.2321 10.3083 4.05042
-32.8056 10.3466 4.11724
-33.2375 10.336 4.16618
-33.8257 10.37 4.23465
-34.434 10.4053 4.30554
-60.206 17.9293 7.51895
-60.2979 17.693 7.52148
-60.3902 17.4568 7.52418
-59.1758 16.8483 7.36436
-59.1588 16.5867 7.35388
-59.4297 16.4053 7.37931
-60.6313 16.4749 7.52024
-60.5678 16.1964 7.50423
-60.5051 15.9193 7.48847
-53.8405 13.9347 6.65663
-53.8415 13.7043 6.64989
-65.7783 16.4612 8.11594
-44.5711 10.9638 5.49386
-44.4005 10.7327 5.46746
-44.3802 10.5392 5.45969
-44.537 10.3875 5.47381
-68.1926 15.616 8.37339
-69.3526 15.5886 8.50809
-76.7372 16.9246 9.40559
-77.0801 16.6755 9.43933
-66.6728 14.1438 8.15781
-77.3179 16.0773 9.45231
-77.4101 15.7721 9.45575
-77.5035 15.4669 9.45949
-71.7298 14.0152 8.74785
-71.2293 13.6204 8.68006
-71.1122 13.302 8.65921
-71.1733 13.0174 8.66021
-71.1803 12.7232 8.65477
-71.1876 12.4294 8.64951
-71.1234 12.1238 8.63572
-61.468 10.2238 7.45834
-61.1922 9.92527 7.41998
-61.2368 9.68 7.4206
-10.8191 1.6657 1.31022
-10.6581 1.59707 1.28993
-10.6672 1.55461 1.29027
-10.8192 1.53238 1.3079
-10.8192 1.48805 1.30717
-10.8986 1.4543 1.31603
-71.2912 9.22172 8.60408
-71.0576 8.90125 8.57151
-70.7498 8.57391 8.53016
-70.6047 8.26848 8.50859
-70.6836 7.98984 8.51416
-70.7592 7.71039 8.51946
-16.875 1.7702 2.03089
-70.8359 7.14297 8.52151
-70.0496 6.77934 8.42357
-71.1746 6.59953 8.55559
-71.5288 6.3425 8.59503
-71.8787 6.08238 8.63407
-72.22 5.81895 8.67219
-72.5647 5.55324 8.71083
-65.439 -9.00023 7.16477
-65.5151 -9.27918 7.17713
-65.5916 -9.55914 7.18966
-65.6683 -9.84012 7.20235
-64.6179 -9.94844 7.09146
-64.6523 -10.22 7.09969
-64.528 -10.4664 7.09061
-64.7215 -10.7649 7.11656
-64.0283 -10.9143 7.04511
-64.3489 -11.2354 7.0853
-64.7322 -11.5707 7.13257
-64.7122 -11.8357 7.13555
-38.0225 -7.11227 4.1957
-66.2324 -12.6649 7.31417
-66.8752 -13.0667 7.3909
-69.7854 -13.9267 7.71864
-70.1519 -14.2934 7.76548
-69.6071 -14.4741 7.71156
-46.791 -9.92613 5.1882
-46.6241 -10.0867 5.17416
-46.4582 -10.2465 5.16027
-46.2931 -10.4054 5.14654
-46.1289 -10.5635 5.13296
-44.7592 -10.4393 4.98517
-44.8004 -10.6391 4.99449
-44.8417 -10.8395 5.00391
-44.8832 -11.0407 5.01346
-45.8892 -11.484 5.13095
-46.2855 -11.7811 5.18051
-46.0173 -11.9099 5.15581
-45.7523 -12.0379 5.13149
-44.4628 -11.8899 4.99219
-44.0586 -11.9718 4.95217
-43.6608 -12.0523 4.91286
-42.9643 -12.0462 4.8399
-43.051 -12.2573 4.85517
-42.2236 -12.2055 4.76736
-42.2152 -12.3871 4.77199
-42.2067 -12.5691 4.77671
-41.9611 -12.6799 4.75464
-41.4792 -12.7165 4.70579
-42.1489 -13.1074 4.7877
-42.1725 -13.3008 4.79642
-42.1638 -13.4847 4.80156
-42.1551 -13.6689 4.80679
-42.1463 -13.8536 4.8121
-42.1375 -14.0386 4.81749
-42.1286 -14.2241 4.82297
-42.1197 -14.4099 4.82854
-42.1107 -14.5962 4.8342
-39.4184 -13.8408 4.53149
-38.8876 -13.8303 4.47682
-38.985 -14.0417 4.4945
-39.0813 -14.2541 4.51217
-38.8501 -14.347 4.4921
-38.6208 -14.439 4.47227
-38.3937 -14.5303 4.45269
-38.1685 -14.6207 4.43335
-37.9452 -14.7104 4.41425
-37.7238 -14.7993 4.39538
-39.7036 -15.7604 4.6334
-39.5448 -15.8817 4.62228
-39.3985 -16.0071 4.61266
-39.2527 -16.1321 4.60315
-39.1075 -16.2565 4.59375
-38.9629 -16.3804 4.58446
-40.5627 -17.2451 4.78081
-40.2165 -17.2891 4.74816
-39.8749 -17.3326 4.71602
-40.7412 -17.9041 4.82695
-40.7537 -18.1054 4.83701
-40.8337 -18.3379 4.85523
-40.7676 -18.5055 4.85617
-40.7016 -18.6733 4.85721
-42.237 -19.5836 5.0498
-42.1744 -19.7609 5.05177
-42.1117 -19.9384 5.05381
-42.0488 -20.116 5.05594
-41.986 -20.2937 5.05815
-42.2054 -20.6095 5.09452
-42.0712 -20.7538 5.08835
-41.9373 -20.8978 5.08228
-41.8038 -21.0414 5.0763
-65.7009 -33.4014 7.99442
-65.5276 -33.6455 7.98972
-65.3544 -33.8893 7.98515
-65.1815 -34.1328 7.98072
-64.975 -34.3582 7.97228
-64.8361 -34.619 7.97226
-64.6637 -34.8617 7.96823
-65.3271 -35.559 8.06752
-64.8683 -35.648 8.02849
-64.4192 -35.7392 7.99063
-64.8174 -36.3016 8.05806
-47.2725 -26.7256 5.8902
-47.1091 -26.8837 5.88326
-45.9825 -26.4864 5.75581
-45.7128 -26.5764 5.73537
-45.7377 -26.8375 5.752
-44.7069 -26.4748 5.63569
-44.7654 -26.7531 5.65659
-44.8245 -27.0336 5.67773
-44.8839 -27.3161 5.69912
-44.9439 -27.6007 5.72078
-44.7038 -27.7014 5.70436
-44.0051 -27.5139 5.62927
-44.657 -28.1717 5.72709
-44.2185 -28.1443 5.68532
-43.7865 -28.1173 5.64427
-42.8297 -27.7467 5.53527
-41.8422 -27.3464 5.4218
-41.8274 -27.5772 5.4342
-41.6707 -27.715 5.42828
-41.7077 -27.9821 5.44772
-41.7451 -28.2511 5.46738
-41.7677 -28.5119 5.48531
-41.7526 -28.7483 5.49847
-41.6841 -28.9489 5.50473
-44.3803 -31.0865 5.87723
-45.5599 -32.1865 6.05053
-45.3711 -32.3274 6.04266
-45.1019 -32.4097 6.02412
-44.9985 -32.6105 6.02777
-47.1798 -34.4814 6.33848
-47.0112 -34.6489 6.33448
-41.6461 -30.9538 5.6283
-47.2828 -35.4393 6.40928
-39.8745 -30.9003 5.47171
-39.7656 -31.0726 5.47386
-39.1783 -30.868 5.41005
-39.1998 -31.1412 5.43026
-38.8061 -31.0837 5.393
-38.993 -31.4917 5.43653
-38.7938 -31.5893 5.42641
-38.4884 -31.5987 5.40141
-38.3698 -31.7604 5.40265
-38.1592 -31.8455 5.39097
-37.9495 -31.9301 5.37943
-38.1123 -32.3297 5.4209
-37.7995 -32.3266 5.39485
-37.4897 -32.3235 5.36914
-37.8583 -32.9075 5.44082
-38.226 -33.4979 5.51298
-38.1148 -33.6723 5.51643
-40.8249 -36.3597 5.92976
-40.8131 -36.6444 5.9494
-40.5907 -36.7405 5.93846
-40.3691 -36.8363 5.92766
-40.1483 -36.9317 5.91699
-39.9283 -37.0268 5.90646
-39.7092 -37.1215 5.89606
-63.6694 -60.0018 9.48945
-61.2181 -58.1581 9.15886
-61.6001 -58.9939 9.25142
-61.4482 -59.3239 9.26435
-61.487 -59.8408 9.30639
-62.4785 -61.2966 9.49368
-62.149 -61.4657 9.48108
-61.5706 -61.3852 9.43041
-61.4926 -61.8024 9.45644
-61.8143 -62.6272 9.54456
-63.6271 -64.9844 9.86473
-63.3552 -65.2291 9.86315
-66.1917 -73.276 10.7106
-64.947 -72.4817 10.5563
-64.9249 -73.0457 10.6003
-64.3458 -72.983 10.5536
-64.7625 -74.0536 10.6707
-64.4071 -74.2475 10.6612
-64.0524 -74.4411 10.652
-48.8706 -57.261 8.16543
-48.5982 -57.4076 8.15841
-46.8974 -55.8522 7.91052
-46.01 -55.2448 7.79822
-46.1209 -55.8329 7.855
-46.0949 -56.2604 7.88902
-45.9028 -56.4877 7.89495
-45.7022 -56.705 7.89958
-45.5013 -56.9226 7.90434
-45.3002 -57.1405 7.90925
-43.3451 -55.1283 7.60654
-43.2605 -55.4782 7.63077
-43.1598 -55.8101 7.6525
-42.0985 -54.8924 7.5034
-41.906 -55.0987 7.5085
-40.982 -54.3357 7.38202
-41.1866 -55.066 7.45869
-40.5876 -54.7224 7.38999
-40.5479 -55.1309 7.42307
-40.4268 -55.4317 7.44163
-40.0002 -55.3124 7.40397
-40.2841 -56.179 7.49824
-39.5942 -55.6884 7.41145
-39.554 -56.1081 7.44608
-39.3973 -56.3656 7.45918
-39.0727 -56.3825 7.44057
-38.7497 -56.3993 7.42217
-39.0907 -57.3886 7.53163
-42.9791 -63.6455 8.33004
-42.6224 -63.6677 8.31044
-41.4255 -62.4212 8.12594
-39.9971 -60.7977 7.8936
-40.4108 -61.9677 8.02434
-40.4225 -62.5336 8.07652
-40.1252 -62.6245 8.06737
-39.7949 -62.6621 8.05153
-39.4493 -62.6732 8.03251
-41.393 -66.3513 8.48253
-41.1412 -66.5418 8.48568
-40.9194 -66.782 8.49525
-40.6821 -66.9977 8.50183
-39.9885 -66.4561 8.41263
-39.9952 -67.0761 8.47069
-42.8453 -72.5171 9.13599
-42.8737 -73.236 9.20477
-42.4753 -73.229 9.18235
-42.1082 -73.2733 9.16661
-41.6556 -73.1649 9.13203
-41.3552 -73.3212 9.1307
-41.2494 -73.8257 9.1728
-40.7958 -73.7082 9.13776
-40.3126 -73.5312 9.09565
-41.5747 -76.5618 9.44978
-41.0246 -76.2785 9.39439
-40.5718 -76.1689 9.36073
-40.1222 -76.0603 9.32748
-39.6759 -75.9525 9.29462
-40.7429 -78.7651 9.61869
-40.7061 -79.4752 9.68535
-40.3851 -79.6358 9.68505
-40.2364 -80.1396 9.72657
-3.10531 -24.9929 2.73174
9.76535 -10.6804 1.56971
9.8148 -10.6481 1.57076
9.80586 -10.0554 1.52343
9.79223 -9.96098 1.51508
9.77879 -9.86766 1.50685
9.77164 -9.78145 1.49968
9.77105 -9.70258 1.49359
9.77055 -9.62434 1.48759
9.77004 -9.54672 1.48165
9.76953 -9.46977 1.47579
9.77004 -9.39437 1.47015
9.77063 -9.31965 1.46459
9.77125 -9.24551 1.4591
9.77184 -9.17191 1.45367
9.77242 -9.09887 1.44831
9.77898 -9.03184 1.44388
9.78605 -8.96574 1.4396
9.79305 -8.9 1.43535
9.8 -8.83465 1.43115
9.80688 -8.76965 1.427
9.81367 -8.705 1.42288
9.77035 -7.98855 1.3689
9.76684 -7.92039 1.36394
9.80918 -7.88957 1.36542
6.68496 -4.62273 0.881581
6.69133 -4.58746 0.879978
6.7157 -4.56457 0.880767
9.75809 -5.18512 1.19858
9.77516 -5.14387 1.19812
9.77574 -2.46727 1.09359
9.7609 -2.42184 1.09084
9.77656 -2.38402 1.09151
9.77777 0.294922 1.06105
9.76184 0.333711 1.05945
9.77707 0.373594 1.06126
9.82461 3.03363 1.1153
9.77773 3.06227 1.11136
9.76527 3.10152 1.11135
9.82953 5.7943 1.23764
9.78191 5.81934 1.23457
9.76793 5.8643 1.23577
9.81258 8.5641 1.41267
9.77578 8.60145 1.41236
9.825 8.71516 1.42453
9.81828 8.77992 1.42866
9.81148 8.84512 1.43283
9.80465 8.91059 1.43705
9.7977 8.97648 1.44131
9.7907 9.04273 1.44561
9.78687 9.11238 1.45045
9.78641 9.18566 1.45584
9.78594 9.25945 1.46129
9.78543 9.33383 1.46681
9.78492 9.40879 1.47239
9.785 9.48484 1.47813
9.78566 9.56207 1.48402
9.78629 9.63992 1.48998
9.78695 9.7184 1.49602
9.78766 9.79754 1.50213
9.80008 9.88922 1.51014
9.81379 9.98293 1.51841
9.82762 10.0778 1.52681
9.8707 11.3327 1.63011
9.79285 11.335 1.62477
9.78496 11.4184 1.63106
6.2775 8.79172 1.17175
6.23809 8.81117 1.17099
6.28516 8.95379 1.18657
6.2316 8.95379 1.18325
6.17836 8.95383 1.17996
6.14809 8.98707 1.18107
6.14848 9.06566 1.18814
6.14078 9.13316 1.19374
27.4434 52.2793 6.40439
27.1836 52.294 6.39277
27.0316 52.5165 6.40662
26.3112 53.2023 6.4378
25.9313 52.969 6.39691
25.7381 53.1139 6.40186
25.4414 53.0439 6.38105
25.1262 52.9313 6.3553
24.9458 53.1013 6.36362
24.7595 53.26 6.37066
24.5728 53.4191 6.37783
24.3834 53.5736 6.38452
24.1833 53.7056 6.3886
24.2598 54.4592 6.46659
28.7884 65.3302 7.74367
28.4805 65.3418 7.73141
28.1736 65.3536 7.71935
28.0295 65.7453 7.75224
27.9412 66.2755 7.80145
27.7955 66.6775 7.83554
27.8922 67.6742 7.93941
27.6287 67.8075 7.94195
25.4277 63.8706 7.45666
24.2499 61.632 7.18388
23.9899 61.6979 7.18026
23.9525 62.3426 7.24403
23.7596 62.5909 7.26172
22.9933 61.314 7.10279
22.7021 61.2859 7.08891
23.1672 63.3216 7.31354
20.9615 58.0143 6.69077
20.6661 57.9245 6.67077
20.3727 57.8355 6.65104
20.0811 57.7474 6.63157
19.7773 57.6194 6.60769
19.6013 57.863 6.62654
19.4087 58.0615 6.64028
19.2148 58.2593 6.65402
19.0202 58.4581 6.66794
18.6976 58.2619 6.63692
18.4619 58.3323 6.63644
18.2263 58.403 6.63609
17.9909 58.474 6.63588
17.7555 58.5452 6.63581
17.5201 58.6166 6.63588
17.3543 58.9242 6.66273
17.3882 59.9271 6.76818
20.1677 70.5652 7.96044
18.5185 65.7944 7.41381
17.6918 63.8401 7.18552
17.4043 63.798 7.17286
16.9448 63.1116 7.08797
16.6734 63.1131 7.08055
16.3984 63.098 7.0714
16.118 63.0593 7.05975
15.8386 63.0209 7.04827
15.56 62.9828 7.03696
15.261 62.8563 7.01591
14.9617 62.7221 6.99415
14.6642 62.5889 6.97268
14.3687 62.457 6.95148
14.1976 62.869 6.99093
14.0306 63.313 7.03398
13.8466 63.6936 7.07002
13.6367 63.9655 7.09406
13.4253 64.2396 7.11841
13.2077 64.4918 7.14041
12.9817 64.7107 7.15882
13.344 67.9318 7.50917
13.3483 69.4286 7.6686
13.1107 69.7026 7.69299
12.8263 69.7327 7.69056
12.4466 70.8658 7.80424
10.6934 65.5108 7.1998
10.5808 66.5016 7.30396
10.3827 66.9909 7.35306
10.1588 67.3332 7.38609
9.91086 67.5293 7.40317
9.11902 77.1957 8.43139
8.82316 77.3594 8.44532
-2.20371 37.1216 4.03355
-10.0464 89.6841 9.78859
-10.4143 89.7078 9.79567
-10.7778 89.6899 9.79836
-11.1399 89.659 9.7998
-11.5021 89.6281 9.8014
-11.8645 89.5971 9.80315
-12.2269 89.5662 9.80506
-12.5895 89.5352 9.80713
-12.9523 89.5042 9.80935
-13.3152 89.4732 9.81174
-13.6784 89.4421 9.81428
-13.6709 87.0499 9.55772
-13.8563 85.9741 9.44564
-14.1268 85.4639 9.39575
-14.438 85.2164 9.37485
-14.7571 85.0229 9.36002
-15.0958 84.9464 9.3582
-15.4383 84.8911 9.35886
-15.7937 84.9054 9.36736
-16.1498 84.9198 9.37603
-16.5067 84.9344 9.38489
-16.8618 84.9368 9.39257
-17.215 84.9272 9.3991
-17.5796 84.97 9.41158
-17.9523 85.0467 9.42799
-18.3263 85.1239 9.44463
-18.7018 85.2015 9.46151
-19.0634 85.2118 9.47109
-19.403 85.1225 9.46976
-19.7403 85.0233 9.46747
-20.0775 84.9242 9.46535
-20.4145 84.8253 9.4634
-20.7513 84.7264 9.4616
-21.0854 84.6166 9.45872
-21.4191 84.5068 9.456
-21.7528 84.3972 9.45345
-8.51469 32.4944 3.64355
-8.54066 32.0673 3.59948
-8.56605 31.6505 3.55653
-8.60246 31.2856 3.51938
-8.66297 31.0175 3.49311
-8.72273 30.7536 3.46732
-8.69762 30.2023 3.40907
-8.66695 29.647 3.3503
-8.63742 29.111 3.29362
-8.56105 28.4339 3.22089
-8.47551 27.7452 3.14671
-8.39383 27.0876 3.07593
-8.3423 26.5436 3.01793
-8.35309 26.2089 2.98368
-8.36359 25.8819 2.95025
-8.37395 25.5622 2.91762
-8.38402 25.2495 2.88575
-8.39394 24.9436 2.85463
-8.37726 24.5669 2.81535
-8.31336 24.0624 2.76134
-8.25187 23.577 2.70942
-8.19273 23.1096 2.65948
-8.18852 22.8062 2.62833
-8.18172 22.5024 2.59708
-8.04238 21.8454 2.52496
-7.91203 21.2277 2.45722
-7.88789 20.9057 2.42361
-7.86441 20.5925 2.39095
-7.87223 20.3669 2.3684
-7.88394 20.1559 2.34753
-7.89551 19.9487 2.32708
-7.90687 19.7451 2.30702
-7.91805 19.545 2.28734
-7.9291 19.3484 2.26804
-7.93918 19.1531 2.24887
-7.94191 18.9441 2.22806
-7.94461 18.739 2.20767
-7.9473 18.5376 2.1877
-7.95281 18.3464 2.16889
-7.9584 18.159 2.15049
-7.96398 17.9747 2.13245
-7.96941 17.7936 2.11474
-7.9748 17.6154 2.09736
-7.98012 17.4402 2.0803
-7.98535 17.2678 2.06355
-7.99051 17.0982 2.04711
-7.95238 16.8398 2.01998
-7.91348 16.5844 1.99314
-7.89832 16.3829 1.97272
-7.8968 16.2128 1.95604
-7.89527 16.0455 1.93968
-7.89383 15.8811 1.92363
-7.89246 15.7195 1.90787
-7.89105 15.5604 1.89241
-7.88973 15.404 1.87722
-7.88848 15.2501 1.86232
-7.89043 15.1047 1.84843
-7.89664 14.9697 1.83577
-7.90277 14.8365 1.82331
-7.90879 14.705 1.81105
-7.9148 14.5754 1.79899
-7.92152 14.449 1.7873
-7.93605 14.3384 1.77755
-7.95031 14.2289 1.76794
-7.96453 14.1208 1.75846
-7.97863 14.0138 1.74911
-7.9925 13.9079 1.73989
-8.00633 13.8031 1.7308
-8.01996 13.6994 1.72183
-8.03348 13.5969 1.71299
-8.04691 13.4955 1.70427
-8.06019 13.395 1.69566
-8.07332 13.2956 1.68717
-8.08641 13.1972 1.67879
-8.0993 13.0998 1.67053
-8.11211 13.0034 1.66238
-8.12484 12.9079 1.65433
-8.13316 12.8066 1.64554
-8.14066 12.7053 1.6367
-8.14809 12.605 1.628
-8.15543 12.5058 1.61941
-8.16687 12.414 1.61176
-8.19508 12.3485 1.60751
-8.22312 12.2833 1.60332
-8.25109 12.2186 1.59918
-8.27887 12.1541 1.59508
-8.30656 12.09 1.59103
-8.3341 12.0261 1.58704
-8.36148 11.9627 1.58308
-8.38879 11.8995 1.57918
-8.4159 11.8368 1.57532
-8.44297 11.7742 1.57151
-8.46984 11.712 1.56774
-8.49664 11.6502 1.56402
-8.52332 11.5886 1.56034
-8.54988 11.5273 1.55671
-8.57633 11.4664 1.55311
-8.60527 11.4093 1.55004
-8.6393 11.359 1.54793
-8.67324 11.309 1.54585
-8.70707 11.2591 1.5438
-8.74082 11.2094 1.54179
-8.77453 11.1598 1.5398
-8.80812 11.1102 1.53786
-8.84168 11.061 1.53594
-8.87516 11.0118 1.53405
-8.90855 10.9628 1.53219
-8.94187 10.9138 1.53037
-8.97516 10.865 1.52857
-9.00836 10.8164 1.52681
-9.04148 10.7679 1.52508
-9.07457 10.7195 1.52338
-9.10758 10.6712 1.52171
-9.14055 10.623 1.52006
-9.17344 10.575 1.51846
-9.20629 10.527 1.51687
-9.2391 10.4792 1.51532
-9.27184 10.4315 1.5138
-9.30668 10.3863 1.51266
-9.3484 10.3489 1.51267
-9.39008 10.3114 1.5127
-9.4318 10.2739 1.51275
-9.47352 10.2364 1.51283
-9.51523 10.199 1.51293
-9.55699 10.1615 1.51307
-9.59879 10.1241 1.51323
-9.64059 10.0867 1.51341
-9.68242 10.0493 1.51362
-9.72426 10.0118 1.51386
-9.76613 9.97441 1.51412
-9.80801 9.93695 1.51441
-9.84988 9.89949 1.51473
-9.89187 9.86203 1.51507
-9.93387 9.82457 1.51544
-9.97586 9.78711 1.51583
-10.0179 9.74965 1.51625
-10.06 9.71215 1.5167
-10.1021 9.67465 1.51717
-10.1442 9.63715 1.51767
-10.1864 9.59961 1.5182
-10.2287 9.56207 1.51875
-10.2709 9.52449 1.51933
-10.3132 9.48695 1.51994
-10.3556 9.4493 1.52057
-10.398 9.41168 1.52123
-10.4405 9.37406 1.52192
-10.483 9.33637 1.52263
-10.5255 9.29871 1.52337
-10.5682 9.26094 1.52414
-10.6109 9.2232 1.52493
-10.6701 9.19965 1.52812
-10.7399 9.18484 1.53281
-10.8101 9.16992 1.53756
-10.8808 9.15488 1.54237
-10.952 9.1398 1.54724
-11.0236 9.12465 1.55216
-11.0957 9.10941 1.55714
-11.1682 9.09406 1.56219
-11.2414 9.07871 1.56729
-11.315 9.06328 1.57246
-11.389 9.04766 1.57769
-11.4637 9.03199 1.58298
-11.5388 9.01625 1.58834
-11.6145 9.00047 1.59376
-11.6907 8.98453 1.59925
-11.7674 8.96848 1.6048
-11.8447 8.95238 1.61042
-11.9226 8.93617 1.61612
-12.0011 8.91984 1.62188
-12.0801 8.90344 1.62771
-12.1594 8.88668 1.63357
-12.2388 8.86945 1.63944
-12.3188 8.85215 1.64538
-12.3995 8.83469 1.65139
-12.4807 8.81715 1.65747
-12.5625 8.79949 1.66363
-12.645 8.78168 1.66987
-12.7227 8.76004 1.67545
-12.7996 8.73734 1.68095
-12.8771 8.71457 1.68651
-12.9551 8.69164 1.69214
-13.0337 8.66859 1.69784
-13.1129 8.64543 1.70361
-13.1925 8.62207 1.70944
-13.2728 8.59859 1.71535
-13.3537 8.57496 1.72133
-13.4351 8.55117 1.72739
-13.5171 8.52727 1.73351
-13.5998 8.50313 1.73972
-13.683 8.47891 1.74599
-13.767 8.45445 1.75235
-13.8515 8.42984 1.75878
-13.9367 8.40516 1.76529
-14.0225 8.38023 1.77188
-14.1109 8.35617 1.77879
-14.2025 8.33355 1.7861
-14.2949 8.31066 1.79351
-14.3881 8.28766 1.80101
-14.4821 8.26449 1.8086
-14.5769 8.24109 1.81629
-14.6726 8.21754 1.82408
-14.8058 8.2141 1.83652
-14.9327 8.20609 1.84814
-15.0546 8.19457 1.85915
-15.1782 8.18285 1.87033
-15.3032 8.17105 1.88167
-15.4298 8.1591 1.89319
-15.558 8.14703 1.90489
-15.6878 8.1348 1.91676
-15.8193 8.12242 1.92882
-15.9524 8.11 1.94106
-16.0873 8.0973 1.9535
-16.224 8.08453 1.96614
-16.3625 8.0716 1.97897
-16.5029 8.05852 1.99201
-16.6451 8.04527 2.00526
-16.7972 8.03566 2.01968
-16.9615 8.03062 2.03554
-17.1227 8.02289 2.051
-17.2771 8.01059 2.06561
-17.4337 7.99824 2.08048
-17.5926 7.9857 2.0956
-17.7539 7.97301 2.11097
-17.9176 7.96012 2.12662
-18.0839 7.94707 2.14253
-18.2526 7.93383 2.15873
-18.4239 7.92043 2.17521
-18.598 7.90684 2.19199
-18.7812 7.8957 2.20982
-19.0257 7.90871 2.23484
-19.2651 7.91754 2.2592
-19.4804 7.91457 2.2807
-19.6998 7.91164 2.30265
-19.9236 7.90863 2.32507
-20.1519 7.90566 2.34798
-20.3847 7.90258 2.37139
-20.6222 7.89945 2.39531
-20.9224 7.91816 2.42646
-21.3849 7.995 2.47635
-21.9034 8.08863 2.5326
-22.4461 8.18668 2.59152
-26.5834 9.5748 3.06474
-27.0914 9.63492 3.11881
-27.6484 9.70797 3.17841
-28.1498 9.75703 3.23152
-28.6684 9.80793 3.2865
-29.397 9.92535 3.36542
-29.8889 9.95781 3.41713
-30.3961 9.99121 3.47049
-30.9195 10.0257 3.52563
-31.2233 9.98566 3.55566
-31.6172 9.97176 3.59593
-32.1693 10.0039 3.65411
-32.7396 10.0371 3.71428
-33.1022 10.0028 3.75082
-33.3098 9.91957 3.7698
-33.5197 9.83559 3.78905
-34.0103 9.83121 3.84
-34.6237 9.85789 3.90476
-35.136 9.85125 3.95803
-35.4598 9.78844 3.99005
-36.1176 9.81394 4.05959
-37.28 9.96902 4.1857
-39.0832 10.2831 4.38349
-53.8297 13.9319 6.03111
-53.8354 13.7028 6.02553
-67.8259 16.9737 7.58373
-44.5428 10.9568 4.97543
-44.3953 10.7315 4.95409
-44.3749 10.538 4.94705
-44.5304 10.386 4.95969
-66.4397 15.2146 7.39303
-66.3173 14.9063 7.37268
-89.5664 19.7541 9.94846
-89.497 19.3619 9.93204
-89.257 18.9347 9.89687
-88.5567 18.4144 9.81093
-88.374 18.0062 9.78258
-79.8878 15.9428 8.83603
-78.0247 15.2451 8.62311
-68.9317 13.1811 7.61226
-69.9416 13.083 7.7179
-70.014 12.8054 7.72016
-72.3961 12.9405 7.97703
-78.728 13.7459 8.66855
-78.6679 13.4096 8.65593
-61.4452 10.22 6.75633
-61.1852 9.92414 6.7233
-61.2265 9.67836 6.72351
-10.8191 1.6657 1.18734
-10.6581 1.59703 1.16895
-10.6672 1.55461 1.16926
-10.8192 1.53238 1.18523
-10.8192 1.48805 1.18457
-10.8986 1.45434 1.19261
-70.8703 9.16727 7.7511
-70.8026 8.8693 7.73974
-68.1871 8.26336 7.45014
-68.6417 8.03859 7.49621
-68.8085 7.77785 7.51095
-68.9764 7.51613 7.52592
-16.8745 1.77016 1.84034
-71.0054 7.16008 7.74077
-71.6718 6.93629 7.81032
-78.101 7.24168 8.5077
-78.1587 6.93027 8.51087
-70.1005 5.93187 7.63074
-70.3677 5.66969 7.65727
-70.6371 5.4057 7.68417
-70.9091 5.13988 7.71144
-71.0299 4.86168 7.7224
-71.102 4.57957 7.72817
-68.2782 -9.11121 6.70013
-68.1085 -9.36738 6.68711
-67.5172 -9.56277 6.63279
-67.5756 -9.84832 6.64236
-67.3458 -10.0914 6.6237
-64.403 -9.91535 6.33814
-64.4371 -10.186 6.34547
-64.4712 -10.4571 6.35293
-64.5055 -10.729 6.3605
-64.5399 -11.0016 6.3682
-64.5538 -11.2712 6.37399
-64.4928 -11.5279 6.37249
-64.5137 -11.7994 6.3792
-38.0213 -7.11207 3.76239
-66.122 -12.6438 6.54807
-66.5949 -13.0119 6.60002
-71.528 -14.2746 7.09455
-70.6823 -14.4015 7.01635
-70.7834 -14.7187 7.03221
-70.8849 -15.0373 7.04824
-68.4621 -14.8112 6.8132
-61.7468 -13.6185 6.15031
-61.4117 -13.8037 6.12241
-61.5461 -14.094 6.14141
-61.0078 -14.2291 6.09335
-47.257 -11.2225 4.72441
-47.2307 -11.417 4.72633
-47.2045 -11.6117 4.72834
-47.1782 -11.8065 4.73043
-47.152 -12.0016 4.73259
-47.1256 -12.1968 4.73483
-47.0993 -12.3923 4.73716
-44.6684 -11.9449 4.49746
-47.0465 -12.7836 4.74203
-42.4417 -11.7158 4.2826
-42.4336 -11.8973 4.28658
-42.4254 -12.0792 4.29062
-42.4172 -12.2614 4.29474
-42.409 -12.444 4.29893
-42.4007 -12.6269 4.30321
-42.3923 -12.8102 4.30756
-41.4167 -12.6973 4.21357
-42.0843 -13.0872 4.2868
-42.3671 -13.3622 4.32104
-42.3586 -13.547 4.32569
-42.3318 -13.7262 4.32856
-41.9615 -13.7929 4.29634
-41.5965 -13.8584 4.26464
-41.2366 -13.9229 4.23343
-42.3153 -14.4769 4.35012
-42.3065 -14.6641 4.35524
-39.4916 -13.8665 4.07117
-38.9502 -13.8525 4.02106
-39.048 -14.0643 4.03696
-39.0393 -14.2388 4.04195
-38.8085 -14.3316 4.02398
-38.5797 -14.4236 4.00624
-38.3529 -14.5148 3.98871
-38.1281 -14.6053 3.97141
-37.9053 -14.6949 3.95432
-37.6843 -14.7838 3.93744
-40.9182 -16.2426 4.28211
-40.1063 -16.1072 4.20389
-40.0403 -16.2679 4.2038
-39.9745 -16.4287 4.20379
-39.909 -16.5896 4.20388
-39.8436 -16.7505 4.20404
-39.7784 -16.9116 4.20431
-39.7133 -17.0728 4.20465
-39.7996 -17.2998 4.22112
-41.0361 -18.0338 4.35991
-41.0493 -18.2368 4.36907
-41.0625 -18.4406 4.37832
-42.6509 -19.3604 4.55595
-42.8503 -19.659 4.58566
-42.9361 -19.9077 4.60336
-42.8 -20.054 4.59738
-42.6643 -20.2 4.59149
-42.5289 -20.3456 4.58568
-61.7143 -31.0631 6.72032
-61.5681 -31.3004 6.71805
-61.4219 -31.5374 6.71588
-61.2758 -31.7743 6.71382
-61.1297 -32.011 6.71186
-61.5955 -32.5711 6.77731
-61.8868 -33.0441 6.82392
-61.7963 -33.3158 6.82867
-64.4994 -35.1084 7.1429
-63.7632 -35.0407 7.07692
-63.6748 -35.3262 7.08281
-63.4644 -35.5438 7.07524
-63.4973 -35.8984 7.09494
-63.4083 -36.1852 7.10118
-46.8978 -27.0137 5.26428
-46.203 -26.8615 5.19838
-46.0796 -27.0381 5.19668
-44.6089 -26.4168 5.04274
-44.667 -26.6943 5.0614
-44.7255 -26.9739 5.08027
-44.7844 -27.2555 5.09938
-44.8439 -27.5393 5.11871
-44.9038 -27.8253 5.13827
-44.5255 -27.8392 5.10775
-45.29 -28.5711 5.20858
-45.9502 -29.2465 5.29798
-45.7647 -29.3876 5.29018
-44.8084 -29.0286 5.19309
-42.677 -27.892 4.95901
-42.8174 -28.23 4.98848
-42.9596 -28.5722 5.01838
-43.1035 -28.9185 5.04874
-43.2493 -29.2691 5.07955
-43.0556 -29.3911 5.07064
-43.2262 -29.7629 5.10478
-46.9428 -32.6009 5.55912
-43.4578 -30.4404 5.16087
-43.3915 -30.6546 5.16758
-43.3249 -30.8694 5.1744
-41.9266 -30.128 5.02181
-41.9125 -30.3741 5.03471
-41.8983 -30.6214 5.04775
-41.884 -30.87 5.06093
-41.8695 -31.1199 5.07426
-41.855 -31.371 5.08774
-45.8787 -34.6757 5.59375
-45.6997 -34.8301 5.58896
-45.5211 -34.9841 5.58427
-45.3427 -35.1379 5.57966
-42.5355 -33.2369 5.25062
-39.3222 -30.9814 4.8693
-39.3641 -31.2718 4.89001
-38.9059 -31.1637 4.84862
-38.9751 -31.4772 4.87297
-38.4037 -31.2716 4.81721
-38.5497 -31.6491 4.85145
-38.3384 -31.7344 4.84087
-38.128 -31.8195 4.83042
-37.9185 -31.9041 4.82009
-38.1998 -32.4039 4.87236
-37.8858 -32.4004 4.84889
-37.5749 -32.3969 4.82572
-38.5882 -33.5419 4.97314
-38.6014 -33.8268 4.99232
-38.4432 -33.9624 4.98949
-38.2853 -34.0978 4.98673
-40.7763 -36.6114 5.33032
-40.5541 -36.7075 5.32053
-40.3329 -36.8032 5.31087
-40.1123 -36.8986 5.30132
-39.8926 -36.9936 5.29189
-62.1431 -58.0935 8.2744
-61.266 -58.2037 8.21967
-66.1823 -63.3822 8.91335
-62.8508 -60.678 8.49746
-63.1059 -61.4163 8.56526
-63.3674 -62.1687 8.6346
-63.0554 -62.3621 8.62617
-62.6478 -62.4591 8.6047
-62.1622 -62.4754 8.57242
-61.6803 -62.4915 8.54055
-63.0464 -64.3913 8.76548
-64.1805 -66.0788 8.96002
-63.9076 -66.3293 8.95906
-63.6347 -66.5797 8.95825
-63.3619 -66.83 8.9576
-62.542 -66.4986 8.87941
-65.6038 -72.6252 9.51946
-65.6242 -73.2374 9.56505
-64.9598 -73.085 9.51097
-64.4394 -73.0891 9.4777
-64.1103 -73.3079 9.47258
-63.8696 -73.6279 9.48068
-63.9969 -74.3766 9.54389
-49.1654 -59.0335 7.47266
-49.0688 -59.4014 7.4942
-48.9715 -59.7715 7.51599
-45.6971 -56.2346 7.04808
-45.507 -56.4628 7.05371
-44.4441 -55.6 6.92354
-44.0627 -55.5795 6.89888
-43.6839 -55.5592 6.8745
-43.1818 -55.3772 6.83045
-42.6048 -55.0924 6.77415
-42.1522 -54.9625 6.73728
-42.0541 -55.2934 6.75706
-41.8607 -55.5008 6.76178
-41.0411 -54.8716 6.66498
-41.0846 -55.3925 6.70813
-40.8874 -55.5924 6.71238
-40.69 -55.7925 6.71674
-40.1315 -55.4939 6.66131
-40.2156 -56.0836 6.71265
-40.262 -56.6275 6.75832
-39.9645 -56.6902 6.74658
-39.2803 -56.1983 6.66918
-39.4916 -56.987 6.74388
-39.269 -57.1552 6.74506
-43.7004 -64.156 7.55045
-41.4544 -61.3876 7.20497
-41.2005 -61.5437 7.20379
-40.8198 -61.5084 7.1804
-40.55 -61.6383 7.17647
-40.2803 -61.7676 7.17263
-40.0107 -61.8966 7.16886
-39.7412 -62.0251 7.16519
-39.4717 -62.1532 7.16159
-39.2023 -62.2808 7.15809
-40.2235 -64.4767 7.39181
-37.833 -61.1913 6.99767
-37.6107 -61.382 7.00213
-37.3881 -61.5729 7.00671
-38.6508 -64.2332 7.2917
-38.523 -64.6072 7.31652
-40.0584 -67.8003 7.65982
-42.5661 -72.7106 8.19517
-42.0586 -72.5107 8.15351
-42.0029 -73.09 8.19961
-41.9464 -73.6757 8.24634
-41.6957 -73.9249 8.2554
-41.1092 -73.5748 8.19778
-41.0555 -74.1773 8.24645
-40.7358 -74.3032 8.24218
-19.2178 -35.3904 3.91712
-19.034 -35.3905 3.90864
-18.9879 -35.6477 3.92859
-18.8238 -35.6846 3.92427
-18.8479 -36.0808 3.95949
-18.8724 -36.4846 3.99544
-18.8976 -36.8958 4.03212
-18.9232 -37.3148 4.06956
-18.9493 -37.7417 4.10778
-18.976 -38.1768 4.1468
-17.9979 -38.9195 4.1708
-17.8051 -38.9125 4.16234
-17.6131 -38.9055 4.15398
-17.422 -38.8986 4.14573
-17.2315 -38.8918 4.13759
-17.0419 -38.8851 4.12956
-16.853 -38.8785 4.12163
-16.6649 -38.8719 4.1138
-14.8197 -34.9554 3.69298
-14.6504 -34.9464 3.68577
-14.4818 -34.9374 3.67866
-14.3139 -34.9286 3.67164
-14.1467 -34.9199 3.66472
-13.9801 -34.9113 3.65789
-13.8142 -34.9029 3.65116
-13.6489 -34.8945 3.64452
-13.4842 -34.8863 3.63797
-13.3202 -34.8782 3.63151
-13.1568 -34.8702 3.62514
-12.9939 -34.8624 3.61886
