ply
format ascii 1.0
comment Created by Open3D
element vertex 1706
property float x
property float y
property float z
end_header
0.427324 0.256543 -0.259008
0.425488 0.257793 -0.258542
0.42373 0.259023 -0.258074
0.421895 0.260254 -0.257604
0.420059 0.261445 -0.257131
0.418223 0.262676 -0.256656
0.416406 0.263867 -0.25618
0.41457 0.265039 -0.255701
0.412715 0.266191 -0.255221
0.410879 0.267344 -0.254739
0.409043 0.268496 -0.254254
0.407168 0.269629 -0.253769
0.405254 0.270742 -0.253281
0.403418 0.271816 -0.252791
0.401543 0.272891 -0.2523
0.399648 0.273984 -0.251807
0.397754 0.275059 -0.251312
0.39584 0.276113 -0.250816
0.393965 0.277148 -0.250318
0.39207 0.278184 -0.249819
0.390156 0.27918 -0.249318
0.388223 0.280156 -0.248816
0.386328 0.281172 -0.248312
0.384395 0.282148 -0.247808
0.38252 0.283105 -0.247301
0.380586 0.284063 -0.246794
0.378613 0.28502 -0.246285
0.376738 0.285937 -0.245775
0.374805 0.286855 -0.245264
0.373301 0.288066 -0.245033
0.37207 0.289531 -0.245005
0.370879 0.291016 -0.244976
0.369668 0.292461 -0.244946
0.368418 0.293887 -0.244916
0.367207 0.295352 -0.244885
0.365957 0.296777 -0.244853
0.364668 0.298203 -0.244821
0.363457 0.299629 -0.244788
0.362207 0.301055 -0.244754
0.360938 0.302461 -0.24472
0.359668 0.303867 -0.244685
0.358379 0.305273 -0.244649
0.357109 0.306641 -0.244613
0.355801 0.308027 -0.244576
0.354531 0.309414 -0.244538
0.353203 0.310781 -0.244499
0.351875 0.312168 -0.24446
0.350625 0.313516 -0.24442
0.349277 0.314883 -0.24438
0.347949 0.31623 -0.244339
0.346621 0.317559 -0.244297
0.345254 0.318887 -0.244254
0.343926 0.320234 -0.244211
0.342598 0.321562 -0.244168
0.34123 0.322871 -0.244123
0.339863 0.32418 -0.244078
0.338477 0.325469 -0.244032
0.337129 0.326797 -0.243986
0.335703 0.328047 -0.243938
0.334336 0.329336 -0.243891
0.332949 0.330625 -0.243842
0.331582 0.331875 -0.243793
0.330137 0.333145 -0.243743
0.32873 0.334395 -0.243693
0.327324 0.335645 -0.243642
0.325918 0.336914 -0.24359
0.324492 0.338125 -0.243538
0.323027 0.339355 -0.243485
0.321621 0.340566 -0.243431
0.320195 0.341797 -0.243377
0.31873 0.343008 -0.243322
0.317285 0.344199 -0.243266
0.315781 0.345391 -0.24321
0.314355 0.346582 -0.243154
0.312871 0.347754 -0.243096
0.311387 0.348926 -0.243038
0.309941 0.350098 -0.242979
0.308418 0.35125 -0.24292
0.306934 0.352402 -0.24286
0.305449 0.353555 -0.242799
0.303965 0.354668 -0.242738
0.302441 0.355801 -0.242676
0.300898 0.356914 -0.242614
0.299395 0.358047 -0.242551
0.297891 0.35916 -0.242487
0.296367 0.360273 -0.242423
0.294844 0.361348 -0.242358
0.29332 0.362441 -0.242292
0.291777 0.363516 -0.242226
0.290215 0.36457 -0.24216
0.288672 0.365645 -0.242092
0.287109 0.36668 -0.242024
0.285527 0.367734 -0.241956
0.284004 0.36877 -0.241887
0.282461 0.369805 -0.241817
0.280879 0.370859 -0.241761
0.279395 0.371992 -0.241763
0.277891 0.373105 -0.241765
0.276426 0.374199 -0.241766
0.274883 0.375332 -0.241766
0.273379 0.376426 -0.241766
0.271836 0.377539 -0.241765
0.270352 0.378633 -0.241764
0.268809 0.379687 -0.241762
0.267285 0.380781 -0.241759
0.265723 0.381836 -0.241756
0.26416 0.38291 -0.241753
0.262676 0.383945 -0.241749
0.261113 0.38498 -0.241744
0.25957 0.386035 -0.241739
0.258027 0.387051 -0.241733
0.256426 0.388086 -0.241726
0.254863 0.389121 -0.241719
0.253301 0.390117 -0.241712
0.251719 0.391094 -0.241704
0.250137 0.39209 -0.241695
0.248535 0.393105 -0.241686
0.246934 0.394082 -0.241676
0.245332 0.395039 -0.241665
0.24377 0.396016 -0.241655
0.242148 0.396973 -0.241643
0.240547 0.39791 -0.241631
0.238926 0.398848 -0.241618
0.237285 0.399785 -0.241605
0.235664 0.400723 -0.241591
0.234043 0.40166 -0.241577
0.232422 0.402559 -0.241562
0.230781 0.403477 -0.241547
0.229141 0.404355 -0.241531
0.22748 0.405254 -0.241514
0.22584 0.406152 -0.241497
0.224219 0.407012 -0.241479
0.222539 0.407871 -0.241461
0.220898 0.40873 -0.241442
0.219238 0.40957 -0.241423
0.217559 0.41043 -0.241403
0.215918 0.41125 -0.241382
0.214219 0.41209 -0.241361
0.212539 0.41293 -0.24134
0.21084 0.41373 -0.241317
0.209199 0.414531 -0.241295
0.20748 0.415352 -0.241271
0.205781 0.416113 -0.241247
0.204062 0.416934 -0.241223
0.202402 0.417676 -0.241198
0.200684 0.418457 -0.241173
0.199004 0.419199 -0.241147
0.197305 0.419941 -0.24112
0.195566 0.420684 -0.241093
0.193848 0.421426 -0.241065
0.192168 0.422148 -0.241037
0.19041 0.422891 -0.241008
0.188672 0.423594 -0.240979
0.186973 0.424297 -0.240949
0.185254 0.42498 -0.240918
0.183477 0.425664 -0.240887
0.181777 0.426348 -0.240856
0.18002 0.427031 -0.240824
0.17834 0.427734 -0.240835
0.176621 0.428535 -0.24087
0.174922 0.429277 -0.240904
0.173223 0.430059 -0.240938
0.171504 0.43082 -0.240971
0.169785 0.431562 -0.241004
0.168105 0.432285 -0.241036
0.166387 0.433027 -0.241068
0.164648 0.43375 -0.2411
0.16293 0.434473 -0.241131
0.161211 0.435137 -0.241161
0.159492 0.435879 -0.241192
0.157754 0.436562 -0.241221
0.155977 0.437246 -0.241251
0.154238 0.43793 -0.24128
0.15252 0.438574 -0.241308
0.150762 0.439238 -0.241336
0.149043 0.439902 -0.241364
0.147285 0.440547 -0.241391
0.145547 0.441172 -0.241418
0.14375 0.441797 -0.241444
0.141992 0.442422 -0.24147
0.140215 0.443047 -0.241495
0.138496 0.443633 -0.24152
0.136699 0.444258 -0.241544
0.134902 0.444863 -0.241568
0.133145 0.44543 -0.241592
0.131367 0.445996 -0.241615
0.129551 0.446582 -0.241637
0.127754 0.447109 -0.24166
0.125996 0.447656 -0.241681
0.124199 0.448203 -0.241703
0.122441 0.44873 -0.241723
0.120605 0.449258 -0.241744
0.118828 0.449785 -0.241763
0.117031 0.450293 -0.241783
0.115234 0.450801 -0.241802
0.113418 0.451309 -0.241821
0.111602 0.451758 -0.241838
0.109824 0.452246 -0.241856
0.108027 0.452715 -0.241873
0.106172 0.453203 -0.24189
0.104355 0.453652 -0.241906
0.102539 0.454102 -0.241922
0.100742 0.454512 -0.241937
0.0989062 0.454961 -0.241952
0.0970703 0.455391 -0.241966
0.0952539 0.455801 -0.24198
0.093418 0.456191 -0.241994
0.0916016 0.456602 -0.242007
0.0897461 0.456973 -0.242019
0.0879102 0.457363 -0.242031
0.0860937 0.457715 -0.242043
0.0842773 0.458086 -0.242054
0.0824414 0.458457 -0.242065
0.0806055 0.458789 -0.242075
0.07875 0.459141 -0.242085
0.0768945 0.459473 -0.242094
0.0750586 0.459785 -0.242103
0.0731836 0.460117 -0.242111
0.0713867 0.460391 -0.242119
0.0695312 0.460684 -0.242126
0.0676758 0.460977 -0.242133
0.0658008 0.46127 -0.24214
0.0639648 0.461543 -0.242146
0.0621289 0.461797 -0.242151
0.0602148 0.46209 -0.242156
0.0583984 0.462324 -0.242161
0.0564844 0.462578 -0.242165
0.0546484 0.462773 -0.242168
0.052793 0.462988 -0.242172
0.050957 0.463223 -0.242178
0.049082 0.463437 -0.242184
0.0472266 0.463633 -0.242191
0.0453906 0.463828 -0.242197
0.0434961 0.464023 -0.242202
0.0416211 0.464219 -0.242207
0.0397852 0.464375 -0.242212
0.0379297 0.464551 -0.242216
0.0360156 0.464707 -0.242219
0.0341602 0.464844 -0.242223
0.0323047 0.465 -0.242225
0.0304102 0.465117 -0.242228
0.0285742 0.465215 -0.242229
0.0266992 0.465352 -0.242231
0.0248242 0.465488 -0.242232
0.0229492 0.465527 -0.242232
0.0210742 0.465625 -0.242232
0.0192188 0.465723 -0.242231
0.0173242 0.465801 -0.242231
0.0154883 0.465859 -0.242229
0.0135742 0.465918 -0.242227
0.0116992 0.465957 -0.242225
0.00984375 0.465996 -0.242222
0.00798828 0.466016 -0.242219
0.00609375 0.466055 -0.242215
0.00423828 0.466074 -0.242211
0.00232422 0.466074 -0.242206
0.000449219 0.466074 -0.242201
-0.00138672 0.466055 -0.242204
-0.00326172 0.466055 -0.242208
-0.00515625 0.466035 -0.242213
-0.00705078 0.466035 -0.242217
-0.00886719 0.465996 -0.24222
-0.0107812 0.465957 -0.242223
-0.0126172 0.465937 -0.242226
-0.0145117 0.465898 -0.242228
-0.0164062 0.46582 -0.24223
-0.0182617 0.465762 -0.242231
-0.0201367 0.465684 -0.242232
-0.0220117 0.465625 -0.242232
-0.0238672 0.465508 -0.242232
-0.0257227 0.46543 -0.242231
-0.0276367 0.465312 -0.24223
-0.0295117 0.465195 -0.242229
-0.0313281 0.465059 -0.242226
-0.0332617 0.464922 -0.242224
-0.0351172 0.464785 -0.242221
-0.0369531 0.464629 -0.242218
-0.0388281 0.464473 -0.242214
-0.0406836 0.464316 -0.24221
-0.0425391 0.464121 -0.242205
-0.0443945 0.463945 -0.2422
-0.0462695 0.46375 -0.242194
-0.0481641 0.463535 -0.242188
-0.0500195 0.46334 -0.242181
-0.051875 0.463125 -0.242174
-0.0537305 0.462891 -0.24217
-0.0555664 0.462637 -0.242167
-0.0574414 0.462461 -0.242163
-0.0592773 0.462187 -0.242158
-0.0611523 0.461934 -0.242154
-0.0629883 0.46168 -0.242148
-0.0648242 0.461406 -0.242143
-0.0667578 0.461152 -0.242136
-0.0685547 0.460859 -0.24213
-0.0704102 0.460547 -0.242122
-0.0722852 0.460254 -0.242115
-0.0741211 0.459961 -0.242107
-0.075957 0.459609 -0.242098
-0.0778125 0.459297 -0.242089
-0.0796289 0.458965 -0.24208
-0.0814648 0.458594 -0.24207
-0.0833789 0.458281 -0.242059
-0.0851758 0.45791 -0.242048
-0.0870312 0.457559 -0.242037
-0.0888477 0.457168 -0.242025
-0.0906445 0.456777 -0.242013
-0.0924805 0.456387 -0.242
-0.0943359 0.455996 -0.241987
-0.0961914 0.455605 -0.241973
-0.0979687 0.455156 -0.241959
-0.0998047 0.454766 -0.241945
-0.101641 0.454316 -0.241929
-0.103418 0.453867 -0.241914
-0.105273 0.453418 -0.241898
-0.107051 0.452969 -0.241882
-0.108887 0.4525 -0.241865
-0.110703 0.452012 -0.241847
-0.11252 0.451543 -0.24183
-0.114336 0.451035 -0.241811
-0.116113 0.450527 -0.241792
-0.117871 0.450039 -0.241773
-0.119707 0.449531 -0.241754
-0.121523 0.449004 -0.241734
-0.123301 0.448477 -0.241713
-0.125098 0.44793 -0.241692
-0.126855 0.447383 -0.241671
-0.128652 0.446836 -0.241649
-0.130488 0.446289 -0.241626
-0.132227 0.445703 -0.241603
-0.134004 0.445137 -0.24158
-0.13582 0.444551 -0.241556
-0.137578 0.443945 -0.241532
-0.139316 0.443359 -0.241507
-0.141094 0.442734 -0.241482
-0.142852 0.442129 -0.241457
-0.144609 0.441484 -0.241431
-0.146387 0.440859 -0.241404
-0.148145 0.440234 -0.241377
-0.149883 0.43957 -0.24135
-0.151641 0.438906 -0.241322
-0.153359 0.438242 -0.241294
-0.155098 0.437578 -0.241265
-0.156816 0.436895 -0.241236
-0.158574 0.436211 -0.241207
-0.160332 0.435527 -0.241177
-0.162051 0.434805 -0.241146
-0.16377 0.434102 -0.241115
-0.165469 0.433359 -0.241084
-0.167207 0.432676 -0.241052
-0.168926 0.431914 -0.24102
-0.170605 0.431191 -0.240987
-0.172363 0.430449 -0.240954
-0.174062 0.429668 -0.240921
-0.175762 0.428926 -0.240887
-0.17748 0.428125 -0.240852
-0.17916 0.427383 -0.240818
-0.180898 0.42666 -0.24084
-0.182617 0.426016 -0.240871
-0.184355 0.425332 -0.240903
-0.186074 0.424629 -0.240933
-0.187832 0.423906 -0.240963
-0.189551 0.423242 -0.240993
-0.19125 0.4225 -0.241022
-0.193027 0.421797 -0.241051
-0.194727 0.421055 -0.241079
-0.196406 0.420312 -0.241106
-0.198164 0.419609 -0.241133
-0.199824 0.418828 -0.241159
-0.201523 0.418047 -0.241185
-0.203223 0.417285 -0.24121
-0.204902 0.416504 -0.241235
-0.206641 0.415723 -0.241259
-0.20832 0.414922 -0.241283
-0.20998 0.414141 -0.241306
-0.21166 0.41332 -0.241328
-0.213379 0.4125 -0.24135
-0.215059 0.41166 -0.241371
-0.216719 0.41084 -0.241392
-0.218379 0.41 -0.241412
-0.220039 0.40916 -0.241432
-0.221719 0.408301 -0.241451
-0.223359 0.407441 -0.24147
-0.22502 0.406562 -0.241488
-0.22668 0.405703 -0.241505
-0.228281 0.404785 -0.241522
-0.229941 0.403926 -0.241539
-0.231602 0.403008 -0.241554
-0.233223 0.402109 -0.241569
-0.234863 0.401152 -0.241584
-0.236504 0.400254 -0.241598
-0.238086 0.399336 -0.241611
-0.239707 0.398398 -0.241625
-0.241309 0.397441 -0.241637
-0.242891 0.396484 -0.241649
-0.244512 0.395527 -0.24166
-0.246113 0.394551 -0.24167
-0.247715 0.393574 -0.241681
-0.249316 0.392617 -0.24169
-0.250898 0.391602 -0.241699
-0.25248 0.390605 -0.241708
-0.254082 0.389609 -0.241715
-0.255605 0.388574 -0.241723
-0.257168 0.387559 -0.241729
-0.25875 0.386543 -0.241736
-0.260332 0.385508 -0.241741
-0.261875 0.384473 -0.241746
-0.263398 0.383398 -0.24175
-0.264961 0.382344 -0.241754
-0.266504 0.381309 -0.241758
-0.268027 0.380215 -0.24176
-0.269551 0.379141 -0.241763
-0.271074 0.378066 -0.241764
-0.272598 0.376973 -0.241765
-0.274121 0.375879 -0.241766
-0.275605 0.374746 -0.241766
-0.277109 0.373652 -0.241765
-0.278613 0.372559 -0.241764
-0.280137 0.371406 -0.241762
-0.281641 0.370332 -0.241782
-0.283223 0.369297 -0.241852
-0.284746 0.368242 -0.241921
-0.286309 0.367207 -0.24199
-0.287871 0.366172 -0.242058
-0.289434 0.365098 -0.242126
-0.290977 0.364023 -0.242193
-0.29252 0.362969 -0.242259
-0.294043 0.361855 -0.242325
-0.295586 0.360801 -0.24239
-0.297109 0.359687 -0.242455
-0.298613 0.358594 -0.242518
-0.300156 0.3575 -0.242582
-0.30166 0.356348 -0.242645
-0.303184 0.355254 -0.242707
-0.304707 0.354102 -0.242768
-0.306152 0.352969 -0.242829
-0.307656 0.351797 -0.24289
-0.30916 0.350684 -0.242949
-0.310645 0.349512 -0.243008
-0.312129 0.34834 -0.243067
-0.313613 0.347168 -0.243124
-0.315059 0.345996 -0.243181
-0.316523 0.344805 -0.243238
-0.317949 0.343594 -0.243294
-0.319434 0.342402 -0.243349
-0.320879 0.341191 -0.243404
-0.322285 0.339961 -0.243458
-0.323789 0.33877 -0.243511
-0.325176 0.33752 -0.243564
-0.326621 0.336289 -0.243616
-0.328027 0.335039 -0.243667
-0.329434 0.333789 -0.243718
-0.33084 0.33252 -0.243768
-0.332285 0.33127 -0.243817
-0.333613 0.329961 -0.243866
-0.33502 0.328711 -0.243914
-0.336426 0.327422 -0.243962
-0.337754 0.326113 -0.244008
-0.339141 0.324824 -0.244054
-0.340527 0.323496 -0.2441
-0.341875 0.322207 -0.244145
-0.343223 0.320898 -0.244189
-0.34459 0.31959 -0.244232
-0.345937 0.318242 -0.244275
-0.347227 0.316875 -0.244317
-0.348613 0.315566 -0.244359
-0.349941 0.314219 -0.2444
-0.35125 0.312852 -0.24444
-0.352578 0.311465 -0.244479
-0.353828 0.310117 -0.244518
-0.355176 0.30873 -0.244556
-0.356445 0.307363 -0.244594
-0.357754 0.305977 -0.244631
-0.359023 0.30457 -0.244667
-0.360293 0.303145 -0.244702
-0.361543 0.301738 -0.244737
-0.362793 0.300332 -0.244771
-0.364062 0.298926 -0.244804
-0.365332 0.2975 -0.244837
-0.366562 0.296055 -0.244869
-0.367812 0.294629 -0.2449
-0.369023 0.293184 -0.244931
-0.370254 0.291719 -0.24496
-0.371465 0.290273 -0.24499
-0.372656 0.288809 -0.245018
-0.373848 0.287344 -0.245046
-0.375742 0.286387 -0.245516
-0.377676 0.285469 -0.246027
-0.37959 0.284531 -0.246536
-0.381523 0.283594 -0.247044
-0.383457 0.282637 -0.247551
-0.385371 0.28168 -0.248057
-0.387285 0.280664 -0.248561
-0.38918 0.279707 -0.249064
-0.391074 0.278672 -0.249565
-0.392969 0.277637 -0.250065
-0.394902 0.276641 -0.250564
-0.396758 0.275566 -0.251061
-0.398691 0.274512 -0.251556
-0.400566 0.273457 -0.25205
-0.402441 0.272383 -0.252542
-0.404316 0.271289 -0.253033
-0.406191 0.270176 -0.253521
-0.408066 0.269062 -0.254008
-0.409902 0.26793 -0.254493
-0.411758 0.266777 -0.254977
-0.413613 0.265605 -0.255458
-0.415449 0.264453 -0.255938
-0.417246 0.263242 -0.256415
-0.419121 0.26207 -0.256891
-0.420957 0.260879 -0.257364
-0.422754 0.259648 -0.257835
-0.42459 0.258398 -0.258305
-0.426367 0.257168 -0.258772
-0.428184 0.255898 -0.259237
-0.429961 0.254629 -0.259699
-0.431758 0.25334 -0.26016
-0.433516 0.252051 -0.260618
-0.435293 0.250742 -0.261073
-0.43709 0.249414 -0.261527
-0.438848 0.248105 -0.261977
-0.440586 0.246758 -0.262426
-0.442285 0.24541 -0.262872
-0.444043 0.244043 -0.263315
-0.445742 0.242656 -0.263755
-0.4475 0.24125 -0.264193
-0.44918 0.239863 -0.264628
-0.450879 0.238437 -0.265061
-0.452539 0.236992 -0.265491
-0.454258 0.235566 -0.265918
-0.455918 0.234102 -0.266342
-0.457578 0.232637 -0.266763
-0.459238 0.231172 -0.26719
-0.461152 0.229824 -0.26776
-0.463027 0.228437 -0.268327
-0.464922 0.22707 -0.26889
-0.466816 0.225664 -0.269448
-0.468691 0.224238 -0.270003
-0.470527 0.222793 -0.270554
-0.472363 0.221328 -0.271101
-0.474219 0.219883 -0.271644
-0.475996 0.218398 -0.272182
-0.477852 0.216895 -0.272716
-0.479629 0.215391 -0.273245
-0.481426 0.213906 -0.27377
-0.483184 0.212363 -0.274291
-0.484941 0.210801 -0.274807
-2.80705 1.20676 -1.58787
-2.81186 1.19547 -1.58787
-2.81666 1.18414 -1.58787
-2.82139 1.17281 -1.58787
-2.82611 1.16146 -1.58787
-2.8307 1.1501 -1.58787
-2.83529 1.13871 -1.58787
-2.83992 1.1273 -1.58787
-2.84436 1.11586 -1.58787
-2.84885 1.10441 -1.58787
-2.85326 1.09297 -1.58787
-2.85764 1.08148 -1.58787
-2.86195 1.07 -1.58787
-2.86625 1.05848 -1.58787
-2.87049 1.04697 -1.58787
-2.87461 1.03539 -1.58787
-2.87885 1.02385 -1.58787
-2.88289 1.01227 -1.58787
-2.88695 1.00068 -1.58787
-2.89096 0.989023 -1.58787
-2.89486 0.977422 -1.58787
-2.89879 0.965781 -1.58787
-2.90264 0.954121 -1.58787
-2.90646 0.942441 -1.58787
-2.91025 0.930762 -1.58787
-2.91396 0.919043 -1.58787
-2.91764 0.907344 -1.58787
-2.92121 0.895566 -1.58787
-2.92482 0.883848 -1.58787
-2.92834 0.87207 -1.58787
-2.93184 0.860312 -1.58787
-2.93525 0.848516 -1.58787
-2.93863 0.836699 -1.58787
-2.94201 0.824883 -1.58787
-2.94525 0.813047 -1.58787
-2.94854 0.801172 -1.58787
-2.95172 0.789336 -1.58787
-2.95484 0.777461 -1.58787
-2.95795 0.765566 -1.58787
-2.961 0.753672 -1.58787
-2.96404 0.741777 -1.58787
-2.96697 0.729863 -1.58787
-2.9699 0.71791 -1.58787
-2.97275 0.705957 -1.58787
-2.97555 0.694023 -1.58787
-2.97834 0.682051 -1.58787
-2.98103 0.670078 -1.58787
-2.98369 0.658086 -1.58787
-2.98635 0.646074 -1.58787
-2.98893 0.634082 -1.58787
-2.99143 0.622031 -1.58787
-2.99393 0.610039 -1.58787
-2.99637 0.597988 -1.58787
-2.99873 0.585938 -1.58787
-3.00107 0.573887 -1.58787
-3.00334 0.561797 -1.58787
-3.00561 0.549707 -1.58787
-3.00775 0.537637 -1.58787
-3.0099 0.525547 -1.58787
-3.01197 0.513438 -1.58787
-3.014 0.501348 -1.58787
-3.01607 0.489219 -1.58787
-3.01797 0.47709 -1.58787
-3.01986 0.464961 -1.58787
-3.02172 0.452793 -1.58787
-3.02354 0.440625 -1.58787
-3.02521 0.428477 -1.58787
-3.02693 0.416328 -1.58787
-3.02859 0.404141 -1.58787
-3.0302 0.391953 -1.58787
-3.03176 0.379766 -1.58787
-3.03326 0.367598 -1.58787
-3.03467 0.355391 -1.58787
-3.03611 0.343203 -1.58787
-3.03748 0.330977 -1.58787
-3.03875 0.31875 -1.58787
-3.04004 0.306562 -1.58787
-3.04121 0.294316 -1.58787
-3.04234 0.28209 -1.58787
-3.0435 0.269883 -1.58787
-3.04457 0.257637 -1.58787
-3.04557 0.245391 -1.58787
-3.04652 0.233145 -1.58787
-3.04746 0.220898 -1.58787
-3.04826 0.208652 -1.58787
-3.04908 0.196387 -1.58787
-3.04986 0.184141 -1.58787
-3.05061 0.171875 -1.58787
-3.05129 0.15959 -1.58787
-3.05187 0.147344 -1.58787
-3.05248 0.135098 -1.58787
-3.05295 0.122793 -1.58787
-3.05344 0.110527 -1.58787
-3.05385 0.0982422 -1.58787
-3.05418 0.085957 -1.58787
-3.05455 0.0736914 -1.58787
-3.05482 0.0614258 -1.58787
-3.05502 0.0491406 -1.58787
-3.0552 0.0368555 -1.58787
-3.05529 0.0245703 -1.58787
-3.05541 0.0122852 -1.58787
-2.97438 0 -1.58787
-2.97438 -0.0119531 -1.58787
-2.97432 -0.0239062 -1.58787
-2.9742 -0.0358594 -1.58787
-2.97404 -0.0478125 -1.58787
-2.97383 -0.0597656 -1.58787
-2.97357 -0.0717383 -1.58787
-2.97326 -0.0836719 -1.58787
-2.97287 -0.095625 -1.58787
-2.97248 -0.107559 -1.58787
-2.97197 -0.119531 -1.58787
-2.9715 -0.131465 -1.58787
-2.97092 -0.143437 -1.58787
-2.97033 -0.155391 -1.58787
-2.96969 -0.167305 -1.58787
-2.96902 -0.179238 -1.58787
-2.96826 -0.191172 -1.58787
-2.96746 -0.203105 -1.58787
-2.96662 -0.215039 -1.58787
-2.96574 -0.226953 -1.58787
-2.96482 -0.238848 -1.58787
-2.96385 -0.250781 -1.58787
-2.96279 -0.262695 -1.58787
-2.9617 -0.274609 -1.58787
-2.96057 -0.286504 -1.58787
-2.95943 -0.298418 -1.58787
-2.9582 -0.310312 -1.58787
-2.95693 -0.322187 -1.58787
-2.95559 -0.334082 -1.58787
-2.95418 -0.345977 -1.58787
-2.95277 -0.357852 -1.58787
-2.95139 -0.369687 -1.58787
-2.94984 -0.381543 -1.58787
-2.9483 -0.393438 -1.58787
-2.94668 -0.405273 -1.58787
-2.94502 -0.417109 -1.58787
-2.9433 -0.428945 -1.58787
-2.94158 -0.440762 -1.58787
-2.93979 -0.452598 -1.58787
-2.93791 -0.464414 -1.58787
-2.93602 -0.47623 -1.58787
-2.93408 -0.488027 -1.58787
-2.93211 -0.499785 -1.58787
-2.93008 -0.511582 -1.58787
-2.92799 -0.523359 -1.58787
-2.92586 -0.535137 -1.58787
-2.92367 -0.546875 -1.58787
-2.92148 -0.558613 -1.58787
-2.9192 -0.570371 -1.58787
-2.91691 -0.58209 -1.58787
-2.91455 -0.593828 -1.58787
-2.91213 -0.605527 -1.58787
-2.90965 -0.617227 -1.58787
-2.90717 -0.628945 -1.58787
-2.90463 -0.640605 -1.58787
-2.90201 -0.652285 -1.58787
-2.89937 -0.663926 -1.58787
-2.89666 -0.675586 -1.58787
-2.89393 -0.687227 -1.58787
-2.89113 -0.698848 -1.58787
-2.88832 -0.710469 -1.58787
-2.88543 -0.72207 -1.58787
-2.8825 -0.733691 -1.58787
-2.87951 -0.745273 -1.58787
-2.87652 -0.756816 -1.58787
-2.87346 -0.768379 -1.58787
-2.87029 -0.779922 -1.58787
-2.86719 -0.791465 -1.58787
-2.86398 -0.802988 -1.58787
-2.86072 -0.814492 -1.58787
-2.85742 -0.825977 -1.58787
-2.8541 -0.83748 -1.58787
-2.85064 -0.848945 -1.58787
-2.84725 -0.860371 -1.58787
-2.84377 -0.871816 -1.58787
-2.84021 -0.883262 -1.58787
-2.8367 -0.894648 -1.58787
-2.83307 -0.906055 -1.58787
-2.82938 -0.917441 -1.58787
-2.8257 -0.928809 -1.58787
-2.82189 -0.940156 -1.58787
-2.81813 -0.951484 -1.58787
-2.8143 -0.962793 -1.58787
-2.81037 -0.974121 -1.58787
-2.80646 -0.98541 -1.58787
-2.80248 -0.99668 -1.58787
-2.79842 -1.00795 -1.58787
-2.79436 -1.01918 -1.58787
-2.79023 -1.03039 -1.58787
-2.78605 -1.04162 -1.58787
-2.78186 -1.05279 -1.58787
-2.7776 -1.06396 -1.58787
-2.7733 -1.07512 -1.58787
-2.76893 -1.08629 -1.58787
-2.76455 -1.0974 -1.58787
-2.7601 -1.10848 -1.58787
-2.75568 -1.11957 -1.58787
-2.75115 -1.13064 -1.58787
-2.74652 -1.14172 -1.58787
-2.74197 -1.15275 -1.58787
-2.73729 -1.16375 -1.58787
-2.7326 -1.17475 -1.58787
-2.72787 -1.18572 -1.58787
-2.72309 -1.19666 -1.58787
-2.71824 -1.2076 -1.58787
-2.71334 -1.21855 -1.58787
-2.70846 -1.22941 -1.58787
-2.7035 -1.24029 -1.58787
-2.69848 -1.25115 -1.58787
-2.69338 -1.26199 -1.58787
-2.68834 -1.27283 -1.58787
-2.6832 -1.28361 -1.58787
-2.67795 -1.29441 -1.58787
-2.67279 -1.30514 -1.58787
-2.66752 -1.31588 -1.58787
-2.66217 -1.3266 -1.58787
-2.65682 -1.33727 -1.58787
-2.65139 -1.34795 -1.58787
-2.646 -1.35859 -1.58787
-2.64049 -1.36924 -1.58787
-2.635 -1.37982 -1.58787
-2.62945 -1.39041 -1.58787
-2.62379 -1.40096 -1.58787
-2.61816 -1.4115 -1.58787
-2.61246 -1.42201 -1.58787
-2.6067 -1.4325 -1.58787
-2.60096 -1.44297 -1.58787
-2.59514 -1.45344 -1.58787
-0.495742 -0.280273 -0.304028
-0.493848 -0.281816 -0.30355
-0.491934 -0.283359 -0.303067
-0.48998 -0.284863 -0.30258
-0.488047 -0.286367 -0.302087
-0.486133 -0.287852 -0.301591
-0.484121 -0.289316 -0.301089
-0.482129 -0.290762 -0.300583
-0.480137 -0.292207 -0.300073
-0.478164 -0.293633 -0.299558
-0.476133 -0.295039 -0.299039
-0.474121 -0.296445 -0.298515
-0.472109 -0.297812 -0.297987
-0.470059 -0.29918 -0.297455
-0.468027 -0.300508 -0.29692
-0.465937 -0.301855 -0.29638
-0.463848 -0.303164 -0.295836
-0.461797 -0.304453 -0.295288
-0.465469 -0.30957 -0.298421
-0.470312 -0.315566 -0.302364
-0.475273 -0.321641 -0.306358
-0.480254 -0.327812 -0.310404
-0.485254 -0.334082 -0.314501
-0.490254 -0.340469 -0.318651
-0.495352 -0.346934 -0.322849
-0.500449 -0.353555 -0.327099
-0.505566 -0.360215 -0.331398
-0.510723 -0.367012 -0.335748
-2.40838 -1.74543 -1.58787
-2.40145 -1.75506 -1.58787
-2.39434 -1.76471 -1.58787
-2.38723 -1.77434 -1.58787
-2.38006 -1.78391 -1.58787
-2.37285 -1.79348 -1.58787
-2.36566 -1.80299 -1.58787
-2.3584 -1.81248 -1.58787
-2.35107 -1.82197 -1.58787
-2.34371 -1.83139 -1.58787
-2.33635 -1.8408 -1.58787
-2.32895 -1.85018 -1.58787
-2.32145 -1.85951 -1.58787
-2.31398 -1.86883 -1.58787
-2.30643 -1.87812 -1.58787
-2.29889 -1.88738 -1.58787
-2.29127 -1.89658 -1.58787
-2.28363 -1.90578 -1.58787
-2.27598 -1.91496 -1.58787
-2.26826 -1.92408 -1.58787
-2.26049 -1.93318 -1.58787
-2.2527 -1.94227 -1.58787
-2.24486 -1.95131 -1.58787
-2.24645 -1.96859 -1.59457
-2.24617 -1.9843 -1.6
-2.22115 -1.97824 -1.58787
-2.2132 -1.98717 -1.58787
-2.20521 -1.99604 -1.58787
-2.19715 -2.00488 -1.58787
-2.18908 -2.01369 -1.58787
-2.181 -2.02248 -1.58787
-2.17283 -2.03123 -1.58787
-2.16469 -2.03996 -1.58787
-2.15645 -2.04865 -1.58787
-2.14814 -2.05729 -1.58787
-2.13986 -2.06594 -1.58787
-0.369043 -0.359141 -0.274908
-0.367891 -0.360918 -0.275129
-0.36668 -0.362695 -0.275349
-0.365547 -0.364434 -0.275568
-0.364375 -0.366191 -0.275785
-0.363164 -0.367969 -0.276
-0.361973 -0.369687 -0.276214
-0.360742 -0.371426 -0.276427
-0.359551 -0.373145 -0.276638
-0.358301 -0.374863 -0.276847
-0.357051 -0.376621 -0.277056
-0.355801 -0.37832 -0.277262
-0.354531 -0.38002 -0.277467
-0.353262 -0.381738 -0.27767
-0.352012 -0.383437 -0.277872
-0.350684 -0.385137 -0.278072
-0.349395 -0.386797 -0.27827
-0.348105 -0.388457 -0.278467
-0.346758 -0.390117 -0.278663
-0.34541 -0.391836 -0.278856
-0.344102 -0.393457 -0.279048
-0.342754 -0.395117 -0.279238
-0.341387 -0.396758 -0.279427
-0.34002 -0.398379 -0.279614
-0.338633 -0.400039 -0.279799
-0.337207 -0.40166 -0.279983
-0.33584 -0.403262 -0.280165
-0.334453 -0.404883 -0.280345
-0.332988 -0.406465 -0.280523
-0.331582 -0.408047 -0.2807
-0.330176 -0.409629 -0.280875
-0.328691 -0.41123 -0.281048
-0.327246 -0.412793 -0.28122
-0.325781 -0.414355 -0.281389
-0.324316 -0.415918 -0.281557
-0.322812 -0.417461 -0.281723
-0.321309 -0.419004 -0.281888
-0.319824 -0.420508 -0.28205
-0.318301 -0.422051 -0.282211
-0.316816 -0.423555 -0.28237
-0.315273 -0.425078 -0.282526
-0.31373 -0.426562 -0.282682
-0.312168 -0.428047 -0.282835
-0.310605 -0.429531 -0.282986
-0.309043 -0.431016 -0.283136
-0.30752 -0.432441 -0.283283
-0.305898 -0.433926 -0.283429
-0.304297 -0.435371 -0.283573
-0.302715 -0.436816 -0.283715
-0.301113 -0.438242 -0.283855
-0.299512 -0.439648 -0.283993
-0.297832 -0.441055 -0.284118
-0.296191 -0.442422 -0.284231
-0.294512 -0.443789 -0.284342
-0.292852 -0.445117 -0.284451
-0.291172 -0.446465 -0.284557
-0.289473 -0.447793 -0.284662
-0.287773 -0.449141 -0.284763
-0.286035 -0.45043 -0.284863
-0.284336 -0.451719 -0.28496
-0.282617 -0.453027 -0.285055
-0.28084 -0.454316 -0.285148
-0.279141 -0.455566 -0.285238
-0.277441 -0.456816 -0.285326
-0.275645 -0.458086 -0.285411
-0.273906 -0.459297 -0.285495
-0.272129 -0.460547 -0.285575
-0.270332 -0.461777 -0.285654
-0.268535 -0.462988 -0.28573
-0.266719 -0.464199 -0.285804
-0.264941 -0.465371 -0.285875
-0.263145 -0.466523 -0.285944
-0.261328 -0.467695 -0.286011
-0.259512 -0.468848 -0.286075
-0.257656 -0.47 -0.286137
-0.25582 -0.471113 -0.286196
-0.253965 -0.472227 -0.286253
-0.252129 -0.47334 -0.286308
-0.250254 -0.474434 -0.28636
-0.248418 -0.475508 -0.286409
-0.246523 -0.476602 -0.286457
-0.244648 -0.477637 -0.286502
-0.242773 -0.478711 -0.286544
-0.240879 -0.479746 -0.286584
-0.238945 -0.480781 -0.286622
-0.23707 -0.481797 -0.286657
-0.235137 -0.482793 -0.28669
-0.233242 -0.483789 -0.28672
-0.231348 -0.484766 -0.286748
-0.229375 -0.485742 -0.286773
-0.227441 -0.48668 -0.286796
-0.225527 -0.487637 -0.286817
-0.223535 -0.488574 -0.286835
-0.221602 -0.489492 -0.28685
-0.219629 -0.490391 -0.286864
-0.217676 -0.491289 -0.286874
-0.215742 -0.492168 -0.286882
-0.21373 -0.493066 -0.286888
-0.211738 -0.493926 -0.286892
-0.209727 -0.494785 -0.286893
-0.207793 -0.495625 -0.286891
-0.205762 -0.496445 -0.286887
-0.20377 -0.497246 -0.286881
-0.201738 -0.498066 -0.286872
-0.199766 -0.498809 -0.28686
-0.197715 -0.499609 -0.286847
-0.195723 -0.500371 -0.28683
-0.193691 -0.501113 -0.286812
-0.19166 -0.501855 -0.286791
-0.189629 -0.502578 -0.286767
-0.187578 -0.503281 -0.286741
-0.185547 -0.503984 -0.286712
-0.183457 -0.504687 -0.286682
-0.181445 -0.505371 -0.286648
-0.179395 -0.506016 -0.286612
-0.177324 -0.50666 -0.286574
-0.175254 -0.507285 -0.286534
-0.173184 -0.50791 -0.28649
-0.171152 -0.508535 -0.286445
-0.169043 -0.509141 -0.286397
-0.166973 -0.509727 -0.286347
-0.164883 -0.510293 -0.286294
-0.162793 -0.510879 -0.286239
-0.160723 -0.511406 -0.286181
-0.158633 -0.511934 -0.286121
-0.156504 -0.51248 -0.286059
-0.154453 -0.512988 -0.286004
-0.15248 -0.513828 -0.286129
-0.150449 -0.514648 -0.286252
-0.148418 -0.515469 -0.286373
-0.146426 -0.51627 -0.286492
-0.144395 -0.51709 -0.286609
-0.142402 -0.517852 -0.286724
-0.140371 -0.518613 -0.286837
-0.13832 -0.519414 -0.286949
-0.136289 -0.520156 -0.287058
-0.134258 -0.520898 -0.287165
-0.132207 -0.521621 -0.287271
-0.130137 -0.522324 -0.287374
-0.128125 -0.523008 -0.287475
-0.126035 -0.523711 -0.287575
-0.123984 -0.524414 -0.287672
-0.121875 -0.525078 -0.287767
-0.119824 -0.525723 -0.287861
-0.117754 -0.526367 -0.287952
-0.115684 -0.527012 -0.288042
-0.113613 -0.527617 -0.288129
-0.111484 -0.528262 -0.288214
-0.109375 -0.528828 -0.288298
-0.107305 -0.529414 -0.288379
-0.105234 -0.52998 -0.288458
-0.103125 -0.530566 -0.288535
-0.101016 -0.531094 -0.28861
-0.0988477 -0.531641 -0.288683
-0.0967773 -0.532168 -0.288754
-0.094668 -0.532676 -0.288823
-0.0925391 -0.533145 -0.28889
-0.0904102 -0.533672 -0.288955
-0.0882617 -0.53416 -0.289018
-0.0861523 -0.534609 -0.289078
-0.0840234 -0.535039 -0.289137
-0.081875 -0.535488 -0.289193
-0.0797656 -0.535937 -0.289248
-0.0776367 -0.536309 -0.289298
-0.0754492 -0.536621 -0.289298
-0.0732813 -0.536934 -0.289295
-0.0711328 -0.537207 -0.289291
-0.0689844 -0.537461 -0.289284
-0.0667773 -0.537734 -0.289276
-0.0646289 -0.537988 -0.289265
-0.0624414 -0.538223 -0.289252
-0.060293 -0.538437 -0.289237
-0.0581445 -0.538633 -0.28922
-0.055957 -0.538828 -0.289202
-0.0537891 -0.539004 -0.28918
-0.0516211 -0.53918 -0.289158
-0.0494727 -0.539355 -0.289133
-0.0472656 -0.539473 -0.289105
-0.0451367 -0.539609 -0.289076
-0.0429492 -0.539727 -0.289045
-0.0407422 -0.539824 -0.289011
-0.0385742 -0.539941 -0.288976
-0.0364258 -0.54 -0.288939
-0.0342578 -0.540059 -0.288899
-0.0320508 -0.540137 -0.288858
-0.0298633 -0.540156 -0.288814
-0.0276758 -0.540215 -0.288769
-0.0255273 -0.540215 -0.288721
-0.0233594 -0.540215 -0.288672
-0.0211914 -0.540234 -0.28862
-0.0189844 -0.540195 -0.288566
-0.0168164 -0.540195 -0.288511
-0.0146484 -0.540117 -0.288453
-0.0124805 -0.540078 -0.288393
-0.0103125 -0.54 -0.288332
-0.00814453 -0.539922 -0.288268
-0.00595703 -0.539844 -0.288202
-0.00380859 -0.539707 -0.288135
-0.00162109 -0.539609 -0.288065
0.000566406 -0.539512 -0.288029
0.00273437 -0.539668 -0.2881
0.00490234 -0.539746 -0.288169
0.00708984 -0.539883 -0.288235
0.00923828 -0.539961 -0.2883
0.0114258 -0.540039 -0.288363
0.0135938 -0.540098 -0.288424
0.0157227 -0.540137 -0.288482
0.0179102 -0.540195 -0.288539
0.0201172 -0.540215 -0.288594
0.0223047 -0.540254 -0.288646
0.0244531 -0.540234 -0.288697
0.0266602 -0.540215 -0.288746
0.0287695 -0.540195 -0.288792
0.0309961 -0.540156 -0.288837
0.0331641 -0.540117 -0.288879
0.035332 -0.540059 -0.28892
0.0375195 -0.539961 -0.288958
0.0396875 -0.539883 -0.288994
0.0418555 -0.539785 -0.289029
0.044043 -0.539668 -0.289061
0.0461914 -0.539551 -0.289091
0.048418 -0.539394 -0.289119
0.0505469 -0.539258 -0.289145
0.0527539 -0.539102 -0.28917
0.0549023 -0.538926 -0.289192
0.0570508 -0.53873 -0.289212
0.0592187 -0.538535 -0.289229
0.0614062 -0.53832 -0.289245
0.0635547 -0.538086 -0.289259
0.0657617 -0.537852 -0.289271
0.0679102 -0.537617 -0.289281
0.0700586 -0.537344 -0.289288
0.072207 -0.537051 -0.289294
0.0743945 -0.536797 -0.289297
0.0765039 -0.536465 -0.289299
0.0786719 -0.536113 -0.289274
0.0808398 -0.535703 -0.289221
0.0829492 -0.535273 -0.289165
0.0851172 -0.534824 -0.289108
0.0872656 -0.534375 -0.289048
0.089375 -0.533887 -0.288987
0.0914844 -0.533437 -0.288923
0.0935937 -0.532949 -0.288857
0.0957227 -0.532422 -0.288789
0.0978516 -0.531895 -0.288719
0.0999805 -0.531387 -0.288647
0.102051 -0.53082 -0.288573
0.10418 -0.530273 -0.288497
0.10627 -0.529707 -0.288419
0.108379 -0.529121 -0.288338
0.110488 -0.528535 -0.288256
0.112578 -0.527949 -0.288172
0.114629 -0.527305 -0.288085
0.116738 -0.526699 -0.287997
0.118789 -0.526055 -0.287907
0.120898 -0.52541 -0.287814
0.122969 -0.524746 -0.28772
0.12502 -0.524063 -0.287624
0.12709 -0.523379 -0.287525
0.129121 -0.522676 -0.287425
0.131152 -0.521953 -0.287323
0.133262 -0.52125 -0.287218
0.135312 -0.520527 -0.287112
0.137344 -0.519785 -0.287003
0.139355 -0.519004 -0.286893
0.141387 -0.518262 -0.286781
0.143418 -0.517461 -0.286667
0.145449 -0.51668 -0.286551
0.147461 -0.515898 -0.286433
0.149453 -0.515078 -0.286313
0.151484 -0.514258 -0.286191
0.153457 -0.513418 -0.286067
0.155527 -0.512715 -0.286027
0.157598 -0.512207 -0.286091
0.159687 -0.51166 -0.286152
0.161797 -0.511133 -0.286211
0.163867 -0.510586 -0.286267
0.165918 -0.51002 -0.286321
0.168027 -0.509414 -0.286373
0.170059 -0.508828 -0.286422
0.172168 -0.508242 -0.286469
0.174219 -0.507617 -0.286513
0.176309 -0.506992 -0.286555
0.178398 -0.506367 -0.286594
0.180449 -0.505703 -0.286631
0.18248 -0.50502 -0.286666
0.184531 -0.504336 -0.286698
0.186562 -0.503652 -0.286728
0.188633 -0.502949 -0.286755
0.190645 -0.502207 -0.28678
0.192676 -0.501504 -0.286802
0.194746 -0.500762 -0.286822
0.196719 -0.49998 -0.28684
0.19877 -0.499219 -0.286855
0.200762 -0.498437 -0.286867
0.202773 -0.497656 -0.286877
0.204785 -0.496836 -0.286885
0.206777 -0.496035 -0.28689
0.208789 -0.495176 -0.286893
0.210762 -0.494355 -0.286893
0.212715 -0.493477 -0.286891
0.214707 -0.492637 -0.286886
0.21668 -0.491738 -0.286879
0.218672 -0.490859 -0.28687
0.220645 -0.489941 -0.286858
0.222617 -0.489043 -0.286844
0.224551 -0.488105 -0.286827
0.226465 -0.487187 -0.286807
0.228437 -0.48623 -0.286786
0.230332 -0.485254 -0.286761
0.232285 -0.484277 -0.286735
0.234219 -0.483301 -0.286706
0.236113 -0.482266 -0.286674
0.238027 -0.481289 -0.28664
0.239941 -0.480273 -0.286604
0.241836 -0.479258 -0.286565
0.24375 -0.478203 -0.286524
0.245625 -0.477129 -0.28648
0.24748 -0.476055 -0.286434
0.249336 -0.47498 -0.286386
0.251211 -0.473887 -0.286335
0.253066 -0.472793 -0.286281
0.254902 -0.47168 -0.286225
0.256777 -0.470566 -0.286167
0.258574 -0.469434 -0.286107
0.260449 -0.468262 -0.286044
0.262246 -0.467129 -0.285978
0.264043 -0.465957 -0.285911
0.265859 -0.464766 -0.28584
0.267637 -0.463574 -0.285768
0.269473 -0.462383 -0.285693
0.27123 -0.461152 -0.285616
0.272988 -0.459941 -0.285536
0.274785 -0.458711 -0.285454
0.276523 -0.457461 -0.28537
0.278301 -0.456211 -0.285283
0.28002 -0.454941 -0.285194
0.281777 -0.453672 -0.285102
0.283535 -0.452402 -0.285009
0.285215 -0.451094 -0.284913
0.286953 -0.449785 -0.284814
0.288652 -0.448477 -0.284713
0.290332 -0.447129 -0.28461
0.292012 -0.44582 -0.284505
0.293691 -0.444473 -0.284397
0.295352 -0.443105 -0.284288
0.297031 -0.441738 -0.284175
0.298691 -0.440352 -0.284061
0.300293 -0.438945 -0.283925
0.301953 -0.437539 -0.283785
0.303555 -0.436094 -0.283645
0.305156 -0.434648 -0.283502
0.306719 -0.433203 -0.283357
0.308301 -0.431738 -0.28321
0.309844 -0.430273 -0.283062
0.311406 -0.428789 -0.282911
0.312969 -0.427305 -0.282759
0.314512 -0.425801 -0.282605
0.316055 -0.424297 -0.282449
0.317559 -0.422793 -0.282291
0.319082 -0.421289 -0.282131
0.320605 -0.419766 -0.28197
0.32207 -0.418223 -0.281806
0.323613 -0.41668 -0.281641
0.325039 -0.415117 -0.281474
0.326523 -0.413594 -0.281305
0.327988 -0.411992 -0.281135
0.329473 -0.41043 -0.280963
0.330898 -0.408867 -0.280788
0.332324 -0.407246 -0.280612
0.33377 -0.405664 -0.280435
0.335137 -0.404062 -0.280256
0.336602 -0.402461 -0.280075
0.337949 -0.40084 -0.279892
0.339336 -0.399219 -0.279707
0.340742 -0.397578 -0.279521
0.34207 -0.395938 -0.279334
0.343477 -0.394316 -0.279144
0.344785 -0.392637 -0.278953
0.346094 -0.390957 -0.27876
0.34748 -0.389336 -0.278566
0.34877 -0.387637 -0.278369
0.350059 -0.385957 -0.278172
0.351367 -0.384277 -0.277972
0.352676 -0.382598 -0.277772
0.353926 -0.380898 -0.277569
0.355215 -0.379199 -0.277365
0.356504 -0.37748 -0.277159
0.357715 -0.375742 -0.276952
0.358926 -0.374023 -0.276743
0.360137 -0.372305 -0.276533
0.361406 -0.370586 -0.276322
0.362559 -0.368809 -0.276108
0.363809 -0.36709 -0.275893
0.36498 -0.365312 -0.275677
0.366152 -0.363555 -0.275459
0.367324 -0.361797 -0.27524
0.368477 -0.360039 -0.275019
0.369629 -0.358262 -0.274797
2.28342 -2.19566 -1.69112
2.29229 -2.18646 -1.69112
2.30107 -2.17721 -1.69112
2.30979 -2.16795 -1.69112
2.3185 -2.15863 -1.69112
2.32713 -2.14934 -1.69112
2.33572 -2.13996 -1.69112
2.34432 -2.13055 -1.69112
2.35287 -2.12111 -1.69112
2.36139 -2.11162 -1.69112
2.36986 -2.10211 -1.69112
2.3783 -2.0926 -1.69112
2.38674 -2.08303 -1.69112
2.39502 -2.07336 -1.69112
2.40334 -2.06371 -1.69112
2.41158 -2.05406 -1.69112
2.4199 -2.04436 -1.69112
2.42807 -2.03459 -1.69112
2.43623 -2.02482 -1.69112
2.44439 -2.01502 -1.69112
2.4524 -2.0052 -1.69112
2.46045 -1.99529 -1.69112
2.4685 -1.98537 -1.69112
2.47643 -1.97547 -1.69112
2.48436 -1.96549 -1.69112
2.49225 -1.95549 -1.69112
2.50006 -1.94545 -1.69112
2.50787 -1.93537 -1.69112
2.51564 -1.92531 -1.69112
2.52338 -1.91514 -1.69112
2.53107 -1.90498 -1.69112
2.53869 -1.89482 -1.69112
2.54627 -1.88457 -1.69112
2.55381 -1.87436 -1.69112
2.56135 -1.86406 -1.69112
2.56881 -1.85375 -1.69112
0.508203 -0.363633 -0.333594
0.503066 -0.356875 -0.329271
0.49793 -0.350254 -0.324995
0.492871 -0.34373 -0.32077
0.487812 -0.337305 -0.316595
0.482773 -0.330977 -0.312473
0.477793 -0.324746 -0.3084
0.472832 -0.318594 -0.30438
0.46793 -0.312578 -0.300411
0.463086 -0.306621 -0.296495
0.462871 -0.303809 -0.295567
0.464941 -0.30252 -0.296113
0.467012 -0.301211 -0.296655
0.469043 -0.299844 -0.297193
0.471113 -0.298496 -0.297726
0.473145 -0.297148 -0.298256
0.475156 -0.295742 -0.298782
0.477187 -0.294336 -0.299303
0.479199 -0.29291 -0.29982
0.481172 -0.291484 -0.300333
0.483145 -0.290059 -0.300841
0.485137 -0.288594 -0.301345
0.487129 -0.287129 -0.301844
0.489043 -0.285605 -0.302339
0.490996 -0.284102 -0.302829
0.49291 -0.282598 -0.303314
0.494824 -0.281055 -0.303794
2.7608 -1.5535 -1.69112
2.76697 -1.54238 -1.69112
2.77318 -1.53123 -1.69112
2.77932 -1.52008 -1.69112
2.78541 -1.50889 -1.69112
2.79143 -1.49768 -1.69112
2.79744 -1.48645 -1.69112
2.80338 -1.47518 -1.69112
2.80932 -1.46393 -1.69112
2.81518 -1.4526 -1.69112
2.82096 -1.44127 -1.69112
2.82674 -1.42994 -1.69112
2.83248 -1.41854 -1.69112
2.83811 -1.40717 -1.69112
2.84377 -1.39574 -1.69112
2.84939 -1.3843 -1.69112
2.85486 -1.37283 -1.69112
2.86041 -1.36135 -1.69112
2.86588 -1.34982 -1.69112
2.87123 -1.33828 -1.69112
2.87666 -1.32678 -1.69112
2.88189 -1.3152 -1.69112
2.88721 -1.30355 -1.69112
2.8924 -1.29197 -1.69112
2.89756 -1.28029 -1.69112
2.90271 -1.26863 -1.69112
2.90775 -1.25699 -1.69112
2.91283 -1.24529 -1.69112
2.91779 -1.23357 -1.69112
2.92271 -1.22182 -1.69112
2.9276 -1.21006 -1.69112
2.93244 -1.19828 -1.69112
2.93721 -1.18648 -1.69112
2.94201 -1.17467 -1.69112
2.94666 -1.16283 -1.69112
2.95135 -1.15096 -1.69112
2.95592 -1.13908 -1.69112
2.96053 -1.12721 -1.69112
2.96502 -1.11529 -1.69112
2.96947 -1.10334 -1.69112
2.97385 -1.09141 -1.69112
2.97826 -1.07947 -1.69112
2.98256 -1.06746 -1.69112
2.98682 -1.05545 -1.69112
2.99103 -1.04348 -1.69112
2.99518 -1.03145 -1.69112
2.99936 -1.01939 -1.69112
3.00342 -1.00732 -1.69112
3.00744 -0.995234 -1.69112
3.01143 -0.983145 -1.69112
3.01529 -0.971016 -1.69112
3.01924 -0.958887 -1.69112
3.02307 -0.946738 -1.69112
3.02689 -0.934629 -1.69112
3.03057 -0.922422 -1.69112
3.03424 -0.910215 -1.69112
3.03791 -0.898027 -1.69112
3.04143 -0.885781 -1.69112
3.04502 -0.873594 -1.69112
3.0485 -0.861348 -1.69112
3.05193 -0.849043 -1.69112
3.05529 -0.836797 -1.69112
3.05865 -0.824512 -1.69112
3.06197 -0.812168 -1.69112
3.06518 -0.799902 -1.69112
3.06838 -0.78752 -1.69112
3.0715 -0.775215 -1.69112
3.07459 -0.762871 -1.69112
3.07768 -0.750488 -1.69112
3.08064 -0.738105 -1.69112
3.08361 -0.725723 -1.69112
3.08646 -0.71332 -1.69112
3.08932 -0.700918 -1.69112
3.09209 -0.688477 -1.69112
3.09486 -0.676055 -1.69112
3.09752 -0.663594 -1.69112
3.10021 -0.651172 -1.69112
3.10279 -0.638672 -1.69112
3.10533 -0.626191 -1.69112
3.10783 -0.613691 -1.69112
3.11025 -0.601191 -1.69112
3.11268 -0.588691 -1.69112
3.11502 -0.576172 -1.69112
3.11729 -0.563652 -1.69112
3.11951 -0.551152 -1.69112
3.1217 -0.538555 -1.69112
3.12385 -0.526035 -1.69112
3.12596 -0.513477 -1.69112
3.12795 -0.500879 -1.69112
3.13002 -0.48834 -1.69112
3.13189 -0.475742 -1.69112
3.13377 -0.463145 -1.69112
3.13561 -0.450547 -1.69112
3.1374 -0.43791 -1.69112
3.13916 -0.425312 -1.69112
3.14084 -0.412656 -1.69112
3.14244 -0.400059 -1.69112
3.14408 -0.387441 -1.69112
3.14561 -0.374785 -1.69112
3.14709 -0.362129 -1.69112
3.1485 -0.349473 -1.69112
3.14986 -0.336816 -1.69112
3.15119 -0.32416 -1.69112
3.15248 -0.311484 -1.69112
3.15373 -0.298809 -1.69112
3.1549 -0.286133 -1.69112
3.156 -0.273438 -1.69112
3.15709 -0.260762 -1.69112
3.15814 -0.248066 -1.69112
3.15904 -0.235371 -1.69112
3.15998 -0.222656 -1.69112
3.16088 -0.209941 -1.69112
3.16174 -0.197246 -1.69112
3.16244 -0.184531 -1.69112
3.16318 -0.171816 -1.69112
3.16381 -0.159102 -1.69112
3.16447 -0.146387 -1.69112
3.16502 -0.133672 -1.69112
3.16553 -0.120937 -1.69112
3.166 -0.108203 -1.69112
3.16643 -0.0954883 -1.69112
3.16678 -0.0827539 -1.69112
3.16709 -0.0700195 -1.69112
3.16732 -0.0572852 -1.69112
3.16752 -0.0445508 -1.69112
3.16768 -0.0318164 -1.69112
3.16779 -0.019082 -1.69112
3.16787 -0.00634766 -1.69112
3.16783 0.00638672 -1.69112
3.16775 0.0191211 -1.69112
3.16768 0.0318555 -1.69112
3.16756 0.0445898 -1.69112
3.16732 0.0573242 -1.69112
3.16709 0.0700586 -1.69112
3.16678 0.0827734 -1.69112
3.16639 0.0955078 -1.69112
3.166 0.108242 -1.69112
3.16549 0.120957 -1.69112
3.16506 0.133691 -1.69112
3.16447 0.146406 -1.69112
3.16385 0.159121 -1.69112
3.16318 0.171855 -1.69112
3.16244 0.18457 -1.69112
3.16166 0.197266 -1.69112
3.16088 0.20998 -1.69112
3.15998 0.222676 -1.69112
3.15908 0.235371 -1.69112
3.15811 0.248086 -1.69112
3.15709 0.260762 -1.69112
3.15604 0.273457 -1.69112
3.1549 0.286152 -1.69112
3.15369 0.298828 -1.69112
3.15248 0.311504 -1.69112
3.15119 0.32418 -1.69112
3.14986 0.336816 -1.69112
3.14846 0.349492 -1.69112
3.14705 0.362148 -1.69112
3.14564 0.374785 -1.69112
3.14404 0.387441 -1.69112
3.14248 0.400059 -1.69112
3.14084 0.412695 -1.69112
3.1392 0.425332 -1.69112
3.13744 0.437969 -1.69112
3.13564 0.450586 -1.69112
3.13381 0.463145 -1.69112
3.13189 0.475723 -1.69112
3.12994 0.48832 -1.69112
3.12799 0.500898 -1.69112
3.12592 0.513457 -1.69112
3.12385 0.526035 -1.69112
3.12178 0.538613 -1.69112
3.11955 0.551113 -1.69112
3.11732 0.563691 -1.69112
3.11498 0.57623 -1.69112
3.11268 0.588691 -1.69112
3.11029 0.60123 -1.69112
3.10787 0.61373 -1.69112
3.10533 0.62623 -1.69112
3.10275 0.638711 -1.69112
3.10018 0.651172 -1.69112
3.09752 0.663633 -1.69112
3.09486 0.676074 -1.69112
3.09209 0.688516 -1.69112
3.08932 0.700918 -1.69112
3.0865 0.71334 -1.69112
3.08357 0.725742 -1.69112
3.08064 0.738125 -1.69112
3.07768 0.750508 -1.69112
3.07463 0.762871 -1.69112
3.07154 0.775215 -1.69112
3.06838 0.787559 -1.69112
3.06521 0.799902 -1.69112
3.06197 0.812246 -1.69112
3.05865 0.824512 -1.69112
3.05533 0.836777 -1.69112
3.05189 0.849102 -1.69112
3.04846 0.861328 -1.69112
3.04502 0.873613 -1.69112
3.04146 0.88584 -1.69112
3.03791 0.898027 -1.69112
3.03428 0.910215 -1.69112
3.03061 0.922402 -1.69112
3.02686 0.934629 -1.69112
3.02307 0.946777 -1.69112
3.01924 0.958926 -1.69112
3.01533 0.971035 -1.69112
3.01139 0.983164 -1.69112
3.00744 0.995254 -1.69112
3.00342 1.00732 -1.69112
2.99936 1.01943 -1.69112
2.99521 1.03145 -1.69112
0.481309 0.16791 -0.272126
0.479961 0.169629 -0.271751
0.478594 0.171309 -0.271371
0.477266 0.172969 -0.270985
0.47584 0.174648 -0.270594
0.474453 0.176289 -0.270198
0.473047 0.177949 -0.269797
0.471621 0.179551 -0.269391
0.470156 0.181191 -0.268979
0.468711 0.182793 -0.268563
0.467363 0.184453 -0.268225
0.466094 0.186113 -0.26791
0.464766 0.187754 -0.267592
0.463477 0.189375 -0.267271
0.46209 0.191035 -0.266945
0.460801 0.192617 -0.266617
0.459473 0.194238 -0.266284
0.458066 0.19584 -0.265949
0.456719 0.197422 -0.26561
0.455371 0.199004 -0.265268
0.453926 0.200586 -0.264922
0.45252 0.202129 -0.264574
0.451094 0.203672 -0.264222
0.449707 0.205215 -0.263866
0.448262 0.206738 -0.263508
0.446758 0.208242 -0.263147
0.445332 0.209766 -0.262782
0.443848 0.21125 -0.262414
0.442402 0.212715 -0.262044
0.440918 0.214199 -0.26167
0.439395 0.215684 -0.261294
0.437871 0.217129 -0.260914
0.436387 0.218535 -0.260532
0.434844 0.219961 -0.260147
0.433301 0.221387 -0.259759
0.431777 0.222812 -0.259368
0.430195 0.22418 -0.258975
0.428652 0.225547 -0.258578
0.42709 0.226953 -0.25818
0.425527 0.228301 -0.257778
0.423926 0.229629 -0.257374
0.422344 0.230977 -0.256968
0.420742 0.232285 -0.256559
0.419121 0.233613 -0.256147
0.4175 0.234922 -0.255733
0.415898 0.236211 -0.255317
0.414238 0.2375 -0.254898
0.412578 0.238789 -0.254477
0.410957 0.240039 -0.254054
0.409297 0.24127 -0.253628
0.407637 0.2425 -0.253201
0.405977 0.243711 -0.252771
0.404297 0.244941 -0.252339
0.402598 0.246152 -0.251904
0.400898 0.247324 -0.251468
0.399238 0.248496 -0.25103
0.397539 0.249668 -0.250589
0.395801 0.25082 -0.250147
0.394121 0.251934 -0.249703
0.392402 0.253086 -0.249257
0.390625 0.254199 -0.248809
0.388926 0.255313 -0.248359
0.387207 0.256406 -0.247908
0.38543 0.25748 -0.247455
0.38373 0.258535 -0.247
0.381973 0.259609 -0.246543
0.380215 0.260664 -0.246085
0.378437 0.261719 -0.245625
0.376699 0.262734 -0.245163
0.374922 0.26375 -0.2447
0.373164 0.264727 -0.244236
0.371855 0.266094 -0.244104
0.370781 0.267578 -0.244083
0.369668 0.269023 -0.244062
0.368516 0.270469 -0.244039
0.367441 0.271934 -0.244016
0.366309 0.273379 -0.243992
0.365117 0.274824 -0.243968
0.363984 0.27625 -0.243942
0.362832 0.277715 -0.243917
0.36168 0.279121 -0.24389
0.360527 0.280566 -0.243863
0.359355 0.281953 -0.243835
0.358164 0.283379 -0.243806
0.356973 0.284785 -0.243777
0.355801 0.286172 -0.243748
0.35459 0.287559 -0.243717
0.353379 0.288945 -0.243686
0.352187 0.290332 -0.243654
0.350937 0.291719 -0.243622
0.349727 0.293066 -0.243588
0.348516 0.294434 -0.243555
0.347266 0.295781 -0.24352
0.346035 0.297148 -0.243485
0.344785 0.298496 -0.243449
0.343535 0.299824 -0.243413
0.342285 0.301152 -0.243376
0.341016 0.30248 -0.243338
0.339727 0.303789 -0.2433
0.338457 0.305117 -0.24326
0.337187 0.306426 -0.243221
0.335879 0.307715 -0.243181
0.33459 0.309023 -0.243139
0.333301 0.310293 -0.243098
0.331973 0.311602 -0.243056
0.330664 0.312871 -0.243013
0.329316 0.314141 -0.242969
0.328047 0.31541 -0.242925
0.326699 0.31666 -0.24288
0.325332 0.31793 -0.242834
0.323984 0.319141 -0.242789
0.322656 0.320391 -0.242742
0.321309 0.321641 -0.242694
0.319941 0.322852 -0.242646
0.318594 0.324082 -0.242598
0.317227 0.325273 -0.242549
0.31584 0.326504 -0.242499
0.314473 0.327695 -0.242448
0.313086 0.328867 -0.242397
0.311699 0.330078 -0.242345
0.310254 0.33127 -0.242293
0.308848 0.332441 -0.24224
0.30748 0.333555 -0.242186
0.306094 0.334746 -0.242132
0.304629 0.335898 -0.242077
0.303223 0.337031 -0.242022
0.301797 0.338184 -0.241966
0.300391 0.339297 -0.241909
0.298926 0.340449 -0.241852
0.29752 0.341562 -0.241794
0.296035 0.342656 -0.241736
0.294609 0.34375 -0.241676
0.293125 0.344863 -0.241617
0.29166 0.345957 -0.241557
0.290215 0.347051 -0.241496
0.28875 0.348086 -0.241434
0.287285 0.34916 -0.241372
0.285762 0.350215 -0.24131
0.284316 0.351289 -0.241246
0.282832 0.352344 -0.241183
0.281328 0.353379 -0.241118
0.279824 0.354414 -0.241053
0.278301 0.35543 -0.240988
0.276777 0.356465 -0.240922
0.275293 0.357461 -0.240855
0.273809 0.358535 -0.240829
0.272422 0.359609 -0.240831
0.270938 0.360723 -0.240833
0.269473 0.361816 -0.240835
0.268027 0.362891 -0.240836
0.266562 0.363965 -0.240836
0.265098 0.365039 -0.240836
0.263652 0.366094 -0.240835
0.262168 0.367148 -0.240834
0.260684 0.368223 -0.240832
0.25918 0.369258 -0.24083
0.257715 0.370273 -0.240827
0.256211 0.371328 -0.240824
0.254687 0.372344 -0.24082
0.253242 0.37334 -0.240815
0.251699 0.374336 -0.24081
0.250176 0.375352 -0.240804
0.248652 0.376348 -0.240798
0.247148 0.377344 -0.240791
0.245605 0.378301 -0.240784
0.244082 0.379258 -0.240776
0.242559 0.380254 -0.240768
0.241016 0.381211 -0.240759
0.239473 0.382148 -0.240749
0.23791 0.383086 -0.240739
0.236387 0.384004 -0.240729
0.234824 0.384961 -0.240717
0.233262 0.385879 -0.240706
0.231738 0.386797 -0.240694
0.230098 0.387715 -0.240681
0.228574 0.388594 -0.240668
0.226973 0.389512 -0.240654
0.225391 0.390391 -0.240639
0.223809 0.39125 -0.240624
0.222227 0.392129 -0.240609
0.220664 0.392988 -0.240593
0.219062 0.393848 -0.240576
0.217441 0.394688 -0.240559
0.21582 0.395547 -0.240542
0.214238 0.396367 -0.240523
0.212598 0.397188 -0.240504
0.210996 0.398027 -0.240485
0.209355 0.398848 -0.240465
0.207734 0.399629 -0.240445
0.206113 0.400449 -0.240424
0.204512 0.40123 -0.240403
0.202871 0.402012 -0.240381
0.201191 0.402812 -0.240358
0.19957 0.403555 -0.240335
