ply
format ascii 1.0
comment Created by Open3D
element vertex 1730
property float x
property float y
property float z
end_header
-3.26625 0.583828 -1.58656
-3.26859 0.570703 -1.58656
-3.2709 0.557559 -1.58656
-3.27309 0.544375 -1.58656
-3.2752 0.53125 -1.58656
-3.2773 0.518066 -1.58656
-3.27937 0.504883 -1.58656
-3.28141 0.491719 -1.58656
-3.28336 0.478496 -1.58656
-3.28523 0.465293 -1.58656
-3.28707 0.452129 -1.58656
-3.28887 0.438887 -1.58656
-3.29059 0.425664 -1.58656
-3.2923 0.412422 -1.58656
-3.29391 0.39918 -1.58656
-3.29551 0.385918 -1.58656
-3.29699 0.372695 -1.58656
-3.29852 0.359414 -1.58656
-3.29992 0.346172 -1.58656
-3.30129 0.33291 -1.58656
-3.30258 0.319629 -1.58656
-3.30383 0.306348 -1.58656
-3.30504 0.293066 -1.58656
-3.30621 0.279785 -1.58656
-3.3073 0.266484 -1.58656
-3.30832 0.253203 -1.58656
-3.30934 0.239902 -1.58656
-3.31027 0.226582 -1.58656
-3.31117 0.213262 -1.58656
-3.31199 0.199961 -1.58656
-3.31277 0.186641 -1.58656
-3.31348 0.17332 -1.58656
-3.31418 0.16 -1.58656
-3.3148 0.14668 -1.58656
-3.31535 0.133359 -1.58656
-3.31582 0.12002 -1.58656
-3.31633 0.106699 -1.58656
-3.31672 0.0933594 -1.58656
-3.31703 0.0800195 -1.58656
-3.31734 0.0666992 -1.58656
-3.31758 0.0533594 -1.58656
-3.31781 0.0400195 -1.58656
-3.31793 0.0266797 -1.58656
-3.31801 0.0133398 -1.58656
-3.22566 -1.95312e-05 -1.58656
-3.22566 -0.0129687 -1.58656
-3.22563 -0.0259375 -1.58656
-3.22547 -0.0389063 -1.58656
-3.22527 -0.0518555 -1.58656
-3.225 -0.0648242 -1.58656
-3.22473 -0.0777734 -1.58656
-3.22441 -0.0907422 -1.58656
-3.22402 -0.103711 -1.58656
-3.22355 -0.11666 -1.58656
-3.22305 -0.129629 -1.58656
-3.22254 -0.142598 -1.58656
-3.22195 -0.155527 -1.58656
-3.22125 -0.168496 -1.58656
-3.22059 -0.181426 -1.58656
-3.2198 -0.194375 -1.58656
-3.21898 -0.207305 -1.58656
-3.21816 -0.220273 -1.58656
-3.21723 -0.233184 -1.58656
-3.21629 -0.246133 -1.58656
-3.21527 -0.259043 -1.58656
-3.21418 -0.271973 -1.58656
-3.21309 -0.284883 -1.58656
-3.21191 -0.297793 -1.58656
-3.21066 -0.310703 -1.58656
-3.20937 -0.323613 -1.58656
-3.20805 -0.336523 -1.58656
-3.20672 -0.349414 -1.58656
-3.20527 -0.362305 -1.58656
-3.20375 -0.375176 -1.58656
-3.20223 -0.388066 -1.58656
-3.20062 -0.400937 -1.58656
-3.19906 -0.413809 -1.58656
-3.19738 -0.42666 -1.58656
-3.19559 -0.439473 -1.58656
-3.19379 -0.452344 -1.58656
-3.19195 -0.465176 -1.58656
-3.19008 -0.478008 -1.58656
-3.18812 -0.49084 -1.58656
-3.18609 -0.503633 -1.58656
-3.18406 -0.516426 -1.58656
-3.18199 -0.529258 -1.58656
-3.17984 -0.542012 -1.58656
-3.17762 -0.554805 -1.58656
-3.17539 -0.567578 -1.58656
-3.17305 -0.580332 -1.58656
-3.17066 -0.593086 -1.58656
-3.16828 -0.60584 -1.58656
-3.16582 -0.618555 -1.58656
-3.16332 -0.631289 -1.58656
-3.16074 -0.643984 -1.58656
-3.15809 -0.65668 -1.58656
-3.15547 -0.669375 -1.58656
-3.15273 -0.68207 -1.58656
-3.14996 -0.694727 -1.58656
-3.14715 -0.707383 -1.58656
-3.1443 -0.72002 -1.58656
-3.14137 -0.732656 -1.58656
-3.1384 -0.745293 -1.58656
-3.13539 -0.75791 -1.58656
-3.1323 -0.770488 -1.58656
-3.12918 -0.783086 -1.58656
-3.12602 -0.795664 -1.58656
-3.12281 -0.808223 -1.58656
-3.11949 -0.820742 -1.58656
-3.11617 -0.833301 -1.58656
-3.11281 -0.845801 -1.58656
-3.10938 -0.858301 -1.58656
-3.1059 -0.87084 -1.58656
-3.10238 -0.883281 -1.58656
-3.09883 -0.895762 -1.58656
-3.09516 -0.908203 -1.58656
-3.09152 -0.920645 -1.58656
-3.08781 -0.933047 -1.58656
-3.08402 -0.945469 -1.58656
-3.08016 -0.957832 -1.58656
-3.07633 -0.970234 -1.58656
-3.07238 -0.982598 -1.58656
-3.06844 -0.994941 -1.58656
-3.06441 -1.00727 -1.58656
-3.06031 -1.01957 -1.58656
-3.05617 -1.03186 -1.58656
-3.05199 -1.04412 -1.58656
-3.04777 -1.05639 -1.58656
-3.04352 -1.06863 -1.58656
-3.03922 -1.08086 -1.58656
-3.03484 -1.09309 -1.58656
-3.03039 -1.10527 -1.58656
-3.02594 -1.11744 -1.58656
-3.02145 -1.12959 -1.58656
-3.01688 -1.14172 -1.58656
-3.01223 -1.15383 -1.58656
-3.00758 -1.16596 -1.58656
-3.00285 -1.17805 -1.58656
-2.99812 -1.1901 -1.58656
-2.99328 -1.20215 -1.58656
-2.98848 -1.21416 -1.58656
-2.98355 -1.22615 -1.58656
-2.97855 -1.23814 -1.58656
-2.97359 -1.2501 -1.58656
-2.96855 -1.26205 -1.58656
-2.96344 -1.27398 -1.58656
-2.95828 -1.2859 -1.58656
-2.95309 -1.29775 -1.58656
-2.94785 -1.30961 -1.58656
-2.94258 -1.32146 -1.58656
-2.93723 -1.33328 -1.58656
-2.93187 -1.34508 -1.58656
-2.92641 -1.35686 -1.58656
-2.92094 -1.36857 -1.58656
-2.91543 -1.38031 -1.58656
-2.90984 -1.39207 -1.58656
-2.90426 -1.40373 -1.58656
-2.89855 -1.41539 -1.58656
-2.89281 -1.42703 -1.58656
-2.88707 -1.43865 -1.58656
-2.88129 -1.45025 -1.58656
-2.87543 -1.46182 -1.58656
-2.86953 -1.47338 -1.58656
-2.86359 -1.4849 -1.58656
-2.85758 -1.49639 -1.58656
-2.85152 -1.50783 -1.58656
-2.84547 -1.51934 -1.58656
-2.83934 -1.53076 -1.58656
-2.83316 -1.54215 -1.58656
-2.82691 -1.55352 -1.58656
-2.82066 -1.56486 -1.58656
-2.81437 -1.57623 -1.58656
-2.80801 -1.5875 -1.58656
-2.8016 -1.59879 -1.58656
-2.79516 -1.61002 -1.58656
-2.78863 -1.62123 -1.58656
-2.78211 -1.63244 -1.58656
-2.77555 -1.64363 -1.58656
-2.76887 -1.65473 -1.58656
-2.76223 -1.6659 -1.58656
-2.75551 -1.67695 -1.58656
-2.74871 -1.68803 -1.58656
-2.74191 -1.69906 -1.58656
-2.73508 -1.71008 -1.58656
-2.7282 -1.72105 -1.58656
-2.72125 -1.73199 -1.58656
-2.71426 -1.74293 -1.58656
-2.70719 -1.75383 -1.58656
-2.70016 -1.76471 -1.58656
-2.69309 -1.77555 -1.58656
-2.68586 -1.78635 -1.58656
-2.67867 -1.79713 -1.58656
-2.67141 -1.80789 -1.58656
-2.6641 -1.81857 -1.58656
-2.6568 -1.82932 -1.58656
-2.64945 -1.83996 -1.58656
-2.64203 -1.85061 -1.58656
-2.63457 -1.86121 -1.58656
-2.62703 -1.8718 -1.58656
-2.61949 -1.88232 -1.58656
-2.61191 -1.89287 -1.58656
-2.6043 -1.90332 -1.58656
-2.5966 -1.91377 -1.58656
-2.58891 -1.92422 -1.58656
-2.58113 -1.93459 -1.58656
-2.57332 -1.94498 -1.58656
-2.56547 -1.95527 -1.58656
-2.55762 -1.96559 -1.58656
-2.54973 -1.97584 -1.58656
-2.54176 -1.98609 -1.58656
-2.53371 -1.99627 -1.58656
-2.5257 -2.00646 -1.58656
-2.51758 -2.0166 -1.58656
-2.50945 -2.0267 -1.58656
-2.50137 -2.03676 -1.58656
-2.49309 -2.04682 -1.58656
-2.48484 -2.05682 -1.58656
-2.47656 -2.06678 -1.58656
-2.46824 -2.07672 -1.58656
-2.45988 -2.08664 -1.58656
-2.45148 -2.0965 -1.58656
-2.44301 -2.10633 -1.58656
-2.43453 -2.11613 -1.58656
-2.42598 -2.12592 -1.58656
-2.41742 -2.13566 -1.58656
-2.40883 -2.14535 -1.58656
-2.40016 -2.155 -1.58656
-2.39152 -2.16467 -1.58656
-2.38277 -2.17424 -1.58656
-2.37402 -2.18381 -1.58656
-2.36523 -2.19334 -1.58656
-2.35637 -2.20283 -1.58656
-2.3475 -2.21227 -1.58656
-2.33863 -2.2217 -1.58656
-2.32969 -2.23109 -1.58656
-2.32641 -2.24596 -1.5905
-2.32504 -2.26279 -1.59576
-2.32359 -2.27969 -1.60107
-2.29348 -2.26826 -1.58656
-2.2843 -2.27744 -1.58656
-2.2752 -2.2866 -1.58656
-2.26598 -2.29574 -1.58656
-2.25672 -2.30482 -1.58656
-2.24742 -2.31389 -1.58656
-2.23809 -2.32289 -1.58656
-2.22871 -2.33187 -1.58656
-2.21934 -2.34082 -1.58656
-2.20992 -2.34973 -1.58656
-2.20047 -2.35859 -1.58656
-2.19094 -2.3674 -1.58656
-2.18141 -2.37621 -1.58656
-2.17188 -2.38494 -1.58656
-2.16227 -2.39369 -1.58656
-2.15258 -2.4023 -1.58656
-2.14293 -2.41096 -1.58656
-2.13324 -2.41957 -1.58656
-2.12629 -2.43131 -1.58863
-2.12469 -2.44932 -1.5948
-2.12309 -2.46746 -1.60104
-2.12152 -2.4857 -1.60735
-2.11988 -2.5041 -1.61374
-2.1182 -2.52266 -1.62019
-2.11656 -2.54137 -1.62672
-2.11492 -2.56021 -1.63333
-2.11406 -2.58027 -1.6407
-2.11406 -2.60156 -1.64881
-0.372148 -0.461758 -0.291701
-0.370547 -0.463555 -0.291904
-0.368945 -0.465371 -0.292105
-0.367305 -0.467168 -0.292303
-0.365664 -0.468945 -0.2925
-0.364023 -0.470723 -0.292695
-0.362383 -0.4725 -0.292887
-0.360703 -0.474258 -0.293078
-0.359023 -0.476016 -0.293266
-0.357383 -0.477773 -0.293452
-0.355664 -0.479512 -0.293636
-0.353945 -0.48123 -0.293818
-0.352227 -0.48293 -0.293998
-0.350508 -0.484648 -0.294175
-0.34875 -0.486328 -0.294351
-0.346992 -0.488027 -0.294524
-0.345234 -0.489688 -0.294695
-0.343477 -0.491348 -0.294863
-0.34168 -0.493008 -0.29503
-0.339883 -0.494648 -0.295194
-0.338086 -0.496289 -0.295356
-0.33625 -0.49791 -0.295516
-0.334414 -0.499531 -0.295674
-0.332578 -0.501133 -0.295829
-0.330742 -0.502715 -0.295982
-0.328867 -0.504297 -0.296133
-0.327031 -0.505879 -0.296281
-0.325156 -0.507441 -0.296427
-0.323242 -0.509004 -0.296571
-0.321367 -0.510527 -0.296712
-0.319453 -0.51207 -0.296851
-0.317539 -0.513574 -0.296988
-0.315625 -0.515078 -0.297123
-0.313672 -0.516582 -0.297255
-0.311719 -0.518047 -0.297384
-0.309766 -0.519531 -0.297512
-0.307812 -0.520977 -0.297636
-0.305859 -0.522422 -0.297759
-0.303867 -0.523867 -0.297879
-0.301875 -0.525293 -0.297997
-0.299883 -0.526699 -0.298112
-0.297852 -0.528105 -0.298225
-0.295859 -0.529492 -0.298335
-0.293828 -0.530859 -0.298443
-0.291797 -0.532246 -0.298548
-0.289727 -0.533594 -0.298651
-0.287695 -0.534941 -0.298752
-0.285625 -0.53627 -0.29885
-0.283555 -0.537578 -0.298945
-0.281484 -0.538887 -0.299038
-0.279414 -0.540176 -0.299129
-0.277344 -0.541445 -0.299217
-0.275234 -0.542715 -0.299303
-0.273125 -0.543965 -0.299386
-0.271016 -0.545195 -0.299467
-0.268906 -0.546426 -0.299545
-0.266758 -0.547637 -0.29962
-0.264609 -0.548848 -0.299693
-0.262461 -0.550039 -0.299763
-0.260312 -0.55123 -0.299832
-0.258164 -0.552383 -0.299897
-0.255977 -0.553535 -0.29996
-0.253828 -0.554668 -0.30002
-0.251641 -0.555781 -0.300077
-0.249453 -0.556895 -0.300132
-0.247227 -0.557988 -0.300185
-0.245039 -0.559062 -0.300235
-0.242812 -0.560137 -0.300283
-0.240625 -0.561191 -0.300327
-0.238398 -0.562227 -0.30037
-0.236133 -0.563262 -0.300409
-0.233906 -0.564277 -0.300447
-0.231641 -0.565215 -0.300449
-0.229375 -0.566113 -0.300438
-0.22707 -0.567031 -0.300425
-0.224766 -0.56791 -0.300408
-0.222461 -0.56877 -0.300389
-0.220156 -0.569609 -0.300367
-0.217852 -0.570449 -0.300341
-0.215547 -0.57125 -0.300313
-0.213242 -0.572051 -0.300283
-0.210898 -0.572852 -0.300249
-0.208555 -0.573613 -0.300212
-0.20625 -0.574375 -0.300172
-0.203906 -0.575117 -0.30013
-0.201562 -0.57584 -0.300084
-0.199219 -0.576562 -0.300036
-0.196836 -0.577246 -0.299985
-0.194492 -0.577949 -0.29993
-0.192109 -0.578613 -0.299873
-0.189766 -0.579258 -0.299813
-0.187383 -0.579902 -0.299751
-0.185039 -0.580527 -0.299685
-0.182656 -0.581133 -0.299616
-0.180273 -0.581719 -0.299545
-0.177891 -0.582285 -0.299471
-0.175508 -0.582852 -0.299394
-0.173086 -0.583398 -0.299314
-0.170703 -0.583926 -0.299231
-0.16832 -0.584434 -0.299145
-0.165898 -0.584922 -0.299057
-0.163516 -0.58543 -0.298966
-0.161094 -0.585898 -0.298872
-0.158672 -0.586348 -0.298775
-0.156289 -0.586777 -0.298676
-0.153867 -0.587207 -0.298573
-0.151445 -0.587617 -0.298468
-0.149141 -0.588359 -0.298539
-0.146797 -0.58918 -0.29866
-0.144492 -0.59 -0.298779
-0.142187 -0.59082 -0.298895
-0.139844 -0.591602 -0.29901
-0.137539 -0.592383 -0.299121
-0.135195 -0.593145 -0.299231
-0.132852 -0.593887 -0.299338
-0.130508 -0.594648 -0.299443
-0.128164 -0.595371 -0.299545
-0.12582 -0.596074 -0.299645
-0.123477 -0.596777 -0.299743
-0.121094 -0.597461 -0.299838
-0.11875 -0.598125 -0.299931
-0.116367 -0.59877 -0.300022
-0.113984 -0.599414 -0.30011
-0.111602 -0.600039 -0.300196
-0.109219 -0.600645 -0.300279
-0.106836 -0.60123 -0.30036
-0.104453 -0.601816 -0.300439
-0.102031 -0.602383 -0.300515
-0.0996484 -0.602949 -0.300584
-0.0972266 -0.603359 -0.300596
-0.0948047 -0.60377 -0.300605
-0.0923828 -0.60416 -0.300612
-0.0899609 -0.604531 -0.300616
-0.0875391 -0.604883 -0.300618
-0.0850781 -0.605234 -0.300618
-0.0826562 -0.605566 -0.300615
-0.0802344 -0.605879 -0.30061
-0.0778125 -0.606172 -0.300602
-0.0753906 -0.606465 -0.300592
-0.0729297 -0.606738 -0.300579
-0.0705078 -0.606992 -0.300564
-0.0680469 -0.607227 -0.300547
-0.0655859 -0.60748 -0.300527
-0.0631641 -0.607695 -0.300505
-0.0607031 -0.607891 -0.30048
-0.0582422 -0.608066 -0.300453
-0.0558203 -0.608242 -0.300424
-0.0533594 -0.608398 -0.300392
-0.0508984 -0.608535 -0.300358
-0.0484375 -0.608652 -0.300321
-0.0459766 -0.60877 -0.300282
-0.0435547 -0.608867 -0.300241
-0.0410937 -0.608945 -0.300197
-0.0386328 -0.609004 -0.300151
-0.0361719 -0.609062 -0.300102
-0.0337109 -0.609102 -0.300051
-0.0312891 -0.609141 -0.299998
-0.0288281 -0.609141 -0.299942
-0.0263672 -0.609121 -0.299884
-0.0239062 -0.609102 -0.299824
-0.0214453 -0.609062 -0.299761
-0.0189844 -0.609023 -0.299696
-0.0165625 -0.608945 -0.299628
-0.0141016 -0.608867 -0.299558
-0.0116406 -0.60877 -0.299486
-0.00917969 -0.608652 -0.299411
-0.00675781 -0.608535 -0.299334
-0.00429688 -0.608398 -0.299255
-0.001875 -0.608262 -0.299174
0.000585937 -0.608164 -0.299132
0.00304687 -0.60834 -0.299215
0.00546875 -0.608477 -0.299295
0.00792969 -0.608613 -0.299373
0.0103906 -0.60873 -0.299449
0.0128125 -0.608828 -0.299522
0.0152734 -0.608906 -0.299593
0.0177344 -0.608984 -0.299662
0.0201953 -0.609043 -0.299728
0.0226562 -0.609082 -0.299792
0.0250781 -0.609102 -0.299854
0.0275391 -0.609121 -0.299913
0.03 -0.609141 -0.29997
0.0324609 -0.609121 -0.300025
0.0349219 -0.609082 -0.300077
0.0373437 -0.609043 -0.300127
0.0398047 -0.608984 -0.300174
0.0422656 -0.608906 -0.300219
0.0447266 -0.608828 -0.300262
0.0471875 -0.608711 -0.300302
0.0496484 -0.608594 -0.30034
0.0520703 -0.608457 -0.300375
0.0545313 -0.60832 -0.300408
0.0569922 -0.608145 -0.300439
0.0594531 -0.607969 -0.300467
0.061875 -0.607773 -0.300493
0.0643359 -0.607598 -0.300516
0.0667578 -0.607363 -0.300537
0.0692187 -0.607129 -0.300556
0.0716797 -0.606875 -0.300572
0.0741016 -0.606602 -0.300586
0.0765625 -0.606328 -0.300597
0.0789844 -0.606035 -0.300606
0.0814453 -0.605723 -0.300612
0.0839062 -0.605391 -0.300616
0.0863281 -0.605059 -0.300618
0.08875 -0.604707 -0.300617
0.0912109 -0.604336 -0.300614
0.0936328 -0.603945 -0.300609
0.0960547 -0.603574 -0.300601
0.0984766 -0.603145 -0.30059
0.100859 -0.602676 -0.300552
0.103281 -0.602109 -0.300477
0.105664 -0.601543 -0.300399
0.108047 -0.600937 -0.30032
0.11043 -0.600332 -0.300238
0.112812 -0.599727 -0.300153
0.115195 -0.599082 -0.300066
0.117578 -0.598437 -0.299977
0.119922 -0.597773 -0.299885
0.122305 -0.597109 -0.299791
0.124648 -0.596406 -0.299695
0.126992 -0.595723 -0.299596
0.129375 -0.59502 -0.299494
0.131719 -0.594277 -0.299391
0.134062 -0.593535 -0.299285
0.136367 -0.592773 -0.299176
0.138711 -0.591992 -0.299066
0.141016 -0.591211 -0.298953
0.143359 -0.59041 -0.298837
0.145664 -0.58959 -0.298719
0.147969 -0.588769 -0.298599
0.150273 -0.58793 -0.298477
0.152656 -0.587402 -0.29852
0.155078 -0.586992 -0.298624
0.1575 -0.586563 -0.298725
0.159883 -0.586133 -0.298823
0.162305 -0.585664 -0.298919
0.164727 -0.585195 -0.299012
0.167109 -0.584687 -0.299101
0.169492 -0.58418 -0.299188
0.171914 -0.583672 -0.299272
0.174297 -0.583125 -0.299354
0.17668 -0.582578 -0.299432
0.179063 -0.582012 -0.299508
0.181445 -0.581426 -0.299581
0.183828 -0.58082 -0.299651
0.186211 -0.580195 -0.299718
0.188594 -0.57957 -0.299782
0.190937 -0.578926 -0.299843
0.19332 -0.578281 -0.299902
0.195664 -0.577617 -0.299957
0.198008 -0.576914 -0.30001
0.200352 -0.576211 -0.30006
0.202734 -0.575488 -0.300107
0.205039 -0.574746 -0.300151
0.207383 -0.574004 -0.300192
0.209727 -0.573242 -0.30023
0.21207 -0.572461 -0.300266
0.214375 -0.57166 -0.300298
0.21668 -0.57084 -0.300327
0.219023 -0.57002 -0.300354
0.221328 -0.56918 -0.300378
0.223594 -0.56832 -0.300399
0.225898 -0.567461 -0.300417
0.228203 -0.566582 -0.300432
0.230469 -0.565684 -0.300444
0.232773 -0.564766 -0.300453
0.235 -0.56377 -0.300428
0.237227 -0.562754 -0.300389
0.239453 -0.561719 -0.300348
0.24168 -0.560664 -0.300305
0.243906 -0.559609 -0.300259
0.246094 -0.558535 -0.30021
0.24832 -0.557441 -0.300159
0.250508 -0.556328 -0.300105
0.252695 -0.555215 -0.300049
0.254883 -0.554082 -0.29999
0.257031 -0.552969 -0.299928
0.259219 -0.551797 -0.299864
0.261367 -0.550625 -0.299797
0.263516 -0.549453 -0.299728
0.265664 -0.548262 -0.299657
0.267773 -0.547051 -0.299582
0.269922 -0.54582 -0.299505
0.272031 -0.54459 -0.299426
0.274141 -0.54334 -0.299344
0.27625 -0.54207 -0.29926
0.278398 -0.540801 -0.299173
0.280469 -0.539512 -0.299084
0.282539 -0.538223 -0.298992
0.284609 -0.536914 -0.298898
0.28668 -0.535586 -0.298801
0.28875 -0.534277 -0.298702
0.290781 -0.53293 -0.2986
0.292812 -0.531563 -0.298496
0.294844 -0.530195 -0.298389
0.296875 -0.528809 -0.29828
0.298867 -0.527402 -0.298168
0.300898 -0.525996 -0.298054
0.302891 -0.52459 -0.297938
0.304844 -0.523145 -0.297819
0.306836 -0.521699 -0.297698
0.308789 -0.520254 -0.297574
0.310742 -0.518789 -0.297448
0.312695 -0.517305 -0.297319
0.314648 -0.51582 -0.297189
0.316563 -0.514316 -0.297055
0.318477 -0.512812 -0.29692
0.320391 -0.511289 -0.296782
0.322305 -0.509766 -0.296642
0.32418 -0.508223 -0.296499
0.326055 -0.50666 -0.296354
0.32793 -0.505098 -0.296207
0.329805 -0.503516 -0.296057
0.331641 -0.501934 -0.295905
0.333477 -0.500332 -0.295751
0.335312 -0.49873 -0.295595
0.337148 -0.497109 -0.295436
0.338945 -0.495469 -0.295275
0.340742 -0.493828 -0.295112
0.342539 -0.492188 -0.294947
0.344336 -0.490527 -0.294779
0.346094 -0.488848 -0.294609
0.347852 -0.487168 -0.294437
0.349609 -0.485469 -0.294263
0.351328 -0.48377 -0.294086
0.353047 -0.48207 -0.293908
0.354766 -0.480371 -0.293727
0.356484 -0.478633 -0.293544
0.358164 -0.476895 -0.293359
0.359883 -0.475156 -0.293172
0.361562 -0.473398 -0.292982
0.363242 -0.471621 -0.292791
0.364883 -0.469844 -0.292598
0.366523 -0.468066 -0.292402
0.368125 -0.46627 -0.292204
0.369766 -0.464473 -0.292005
0.371367 -0.462656 -0.291803
0.372969 -0.46084 -0.291599
2.17203 -2.66191 -1.68981
2.1827 -2.65314 -1.68981
2.19332 -2.64436 -1.68981
2.20395 -2.63551 -1.68981
2.21453 -2.62662 -1.68981
2.22504 -2.6177 -1.68981
2.23559 -2.60875 -1.68981
2.24602 -2.59973 -1.68981
2.25648 -2.59066 -1.68981
2.26688 -2.5816 -1.68981
2.27723 -2.57246 -1.68981
2.28754 -2.56326 -1.68981
2.29781 -2.55406 -1.68981
2.30809 -2.54482 -1.68981
2.31832 -2.53549 -1.68981
2.32848 -2.52617 -1.68981
2.33859 -2.5168 -1.68981
2.34871 -2.50734 -1.68981
2.35875 -2.49789 -1.68981
2.36875 -2.4884 -1.68981
2.37879 -2.47885 -1.68981
2.38871 -2.46928 -1.68981
2.39863 -2.45965 -1.68981
2.40848 -2.45 -1.68981
2.41832 -2.44029 -1.68981
2.42809 -2.43055 -1.68981
2.43785 -2.42076 -1.68981
2.44758 -2.41094 -1.68981
2.45727 -2.40109 -1.68981
2.46687 -2.39121 -1.68981
2.47648 -2.38125 -1.68981
2.48602 -2.37127 -1.68981
2.49551 -2.36127 -1.68981
2.505 -2.35123 -1.68981
2.51445 -2.34113 -1.68981
2.52383 -2.33102 -1.68981
2.53316 -2.32082 -1.68981
2.5425 -2.31062 -1.68981
2.55172 -2.30041 -1.68981
2.56098 -2.29012 -1.68981
2.5702 -2.27979 -1.68981
2.5793 -2.26943 -1.68981
2.5884 -2.25908 -1.68981
2.59746 -2.24863 -1.68981
2.60648 -2.23818 -1.68981
2.61547 -2.22771 -1.68981
2.62445 -2.21717 -1.68981
2.63332 -2.20658 -1.68981
2.64215 -2.19598 -1.68981
2.65094 -2.18535 -1.68981
2.65973 -2.17469 -1.68981
2.66844 -2.16395 -1.68981
2.67711 -2.1532 -1.68981
2.68574 -2.14244 -1.68981
2.69434 -2.13162 -1.68981
2.70285 -2.1208 -1.68981
2.71137 -2.10988 -1.68981
2.7198 -2.09898 -1.68981
2.72832 -2.08801 -1.68981
2.73664 -2.07703 -1.68981
2.74496 -2.06604 -1.68981
2.75324 -2.05498 -1.68981
2.76145 -2.04389 -1.68981
2.76969 -2.03277 -1.68981
2.77785 -2.02162 -1.68981
2.78594 -2.01043 -1.68981
2.79398 -1.99924 -1.68981
2.80199 -1.98797 -1.68981
2.80996 -1.9767 -1.68981
2.81793 -1.96537 -1.68981
2.82582 -1.95404 -1.68981
2.83359 -1.94266 -1.68981
2.84141 -1.93125 -1.68981
2.8491 -1.9198 -1.68981
2.85684 -1.90836 -1.68981
2.86449 -1.89684 -1.68981
2.87211 -1.88531 -1.68981
2.87965 -1.87375 -1.68981
2.88715 -1.86217 -1.68981
2.89461 -1.85055 -1.68981
2.90199 -1.83889 -1.68981
2.90941 -1.82725 -1.68981
2.91672 -1.81549 -1.68981
2.92398 -1.80375 -1.68981
2.93121 -1.79199 -1.68981
2.9384 -1.7802 -1.68981
2.94555 -1.76836 -1.68981
2.95262 -1.7565 -1.68981
2.95969 -1.74463 -1.68981
2.96664 -1.7327 -1.68981
2.97355 -1.72078 -1.68981
2.98047 -1.70881 -1.68981
2.98734 -1.6968 -1.68981
2.9941 -1.68479 -1.68981
3.0009 -1.67273 -1.68981
3.00758 -1.66064 -1.68981
3.01418 -1.64855 -1.68981
3.02082 -1.63643 -1.68981
3.02738 -1.62428 -1.68981
3.03391 -1.61211 -1.68981
3.04031 -1.59988 -1.68981
3.04672 -1.58766 -1.68981
3.05309 -1.57539 -1.68981
3.05941 -1.56311 -1.68981
3.0657 -1.55078 -1.68981
3.07187 -1.53846 -1.68981
3.07801 -1.52609 -1.68981
3.08414 -1.51371 -1.68981
3.09023 -1.50131 -1.68981
3.09621 -1.48885 -1.68981
3.10215 -1.47641 -1.68981
3.10805 -1.46395 -1.68981
3.11391 -1.45141 -1.68981
3.11977 -1.43889 -1.68981
3.12555 -1.42633 -1.68981
3.13125 -1.41373 -1.68981
3.13687 -1.40115 -1.68981
3.1425 -1.38854 -1.68981
3.14805 -1.3759 -1.68981
3.15359 -1.36322 -1.68981
3.15902 -1.35053 -1.68981
3.16441 -1.33783 -1.68981
3.16977 -1.32512 -1.68981
3.17508 -1.31234 -1.68981
3.18031 -1.29959 -1.68981
3.18551 -1.28676 -1.68981
3.19062 -1.27398 -1.68981
3.19574 -1.26109 -1.68981
3.20078 -1.24828 -1.68981
3.20578 -1.23541 -1.68981
3.2107 -1.22252 -1.68981
3.21562 -1.20957 -1.68981
3.22043 -1.19662 -1.68981
3.22523 -1.18367 -1.68981
3.22996 -1.1707 -1.68981
3.23465 -1.15771 -1.68981
3.23926 -1.14471 -1.68981
3.24383 -1.13168 -1.68981
3.2484 -1.11863 -1.68981
3.25285 -1.10555 -1.68981
3.25727 -1.09246 -1.68981
3.26164 -1.07936 -1.68981
3.26594 -1.06627 -1.68981
3.27023 -1.05311 -1.68981
3.27441 -1.03996 -1.68981
3.27855 -1.02678 -1.68981
3.28266 -1.01361 -1.68981
3.28668 -1.00039 -1.68981
3.29074 -0.987168 -1.68981
3.29465 -0.973926 -1.68981
3.29852 -0.960703 -1.68981
3.30234 -0.947422 -1.68981
3.30613 -0.934141 -1.68981
3.30988 -0.92084 -1.68981
3.31355 -0.90752 -1.68981
3.31715 -0.894199 -1.68981
3.32074 -0.880859 -1.68981
3.32426 -0.8675 -1.68981
3.32773 -0.854121 -1.68981
3.33113 -0.840742 -1.68981
3.33445 -0.827344 -1.68981
3.33777 -0.813926 -1.68981
3.34105 -0.800508 -1.68981
3.34426 -0.78707 -1.68981
3.34734 -0.773613 -1.68981
3.35043 -0.760156 -1.68981
3.35348 -0.74668 -1.68981
3.35645 -0.733184 -1.68981
3.35938 -0.719707 -1.68981
3.36227 -0.706191 -1.68981
3.36504 -0.692656 -1.68981
3.36781 -0.679141 -1.68981
3.37051 -0.665586 -1.68981
3.37316 -0.652031 -1.68981
3.37574 -0.638477 -1.68981
3.37828 -0.624883 -1.68981
3.38074 -0.611289 -1.68981
3.38324 -0.597695 -1.68981
3.38559 -0.584082 -1.68981
3.38789 -0.570488 -1.68981
3.39016 -0.556836 -1.68981
3.39238 -0.543203 -1.68981
3.39453 -0.52959 -1.68981
3.3966 -0.515957 -1.68981
3.39863 -0.502305 -1.68981
3.40062 -0.488613 -1.68981
3.40262 -0.474941 -1.68981
3.40449 -0.46127 -1.68981
3.40633 -0.447559 -1.68981
3.40809 -0.433887 -1.68981
3.40977 -0.420137 -1.68981
3.41148 -0.406445 -1.68981
3.41309 -0.392734 -1.68981
3.41461 -0.379023 -1.68981
3.41609 -0.365293 -1.68981
3.41754 -0.351543 -1.68981
3.41895 -0.337793 -1.68981
3.42027 -0.324062 -1.68981
3.42156 -0.310312 -1.68981
3.42277 -0.296543 -1.68981
3.42395 -0.282793 -1.68981
3.42504 -0.269023 -1.68981
3.42609 -0.255273 -1.68981
3.42711 -0.241484 -1.68981
3.42801 -0.227695 -1.68981
3.42895 -0.213926 -1.68981
3.42977 -0.200156 -1.68981
3.43055 -0.186328 -1.68981
3.43121 -0.172578 -1.68981
3.43191 -0.15875 -1.68981
3.43254 -0.145 -1.68981
3.43309 -0.131172 -1.68981
3.43355 -0.117383 -1.68981
3.43402 -0.103555 -1.68981
3.43445 -0.0897461 -1.68981
3.43477 -0.0759375 -1.68981
3.43504 -0.0621484 -1.68981
3.43527 -0.0483398 -1.68981
3.43539 -0.0345313 -1.68981
3.43555 -0.0207031 -1.68981
3.43559 -0.006875 -1.68981
3.43559 0.00691406 -1.68981
3.43551 0.0207227 -1.68981
3.43543 0.0345508 -1.68981
3.43527 0.0483203 -1.68981
3.435 0.0621484 -1.68981
3.43477 0.0759766 -1.68981
3.43441 0.0897656 -1.68981
3.43402 0.103574 -1.68981
3.43359 0.117383 -1.68981
3.43309 0.131172 -1.68981
3.43254 0.14498 -1.68981
3.43191 0.15877 -1.68981
3.43125 0.172559 -1.68981
3.43055 0.186367 -1.68981
3.42977 0.200156 -1.68981
3.42891 0.213945 -1.68981
3.42805 0.227734 -1.68981
3.42711 0.241484 -1.68981
3.42609 0.255254 -1.68981
3.42504 0.269062 -1.68981
3.42391 0.282813 -1.68981
3.42273 0.296582 -1.68981
3.42156 0.310352 -1.68981
3.42027 0.324102 -1.68981
3.41891 0.337832 -1.68981
3.41758 0.351582 -1.68981
3.41613 0.365332 -1.68981
3.41465 0.379043 -1.68981
3.41309 0.392754 -1.68981
3.41145 0.406504 -1.68981
3.4098 0.420176 -1.68981
3.40812 0.433887 -1.68981
3.40633 0.447598 -1.68981
3.40445 0.46127 -1.68981
3.40258 0.474941 -1.68981
3.40066 0.488613 -1.68981
3.39867 0.502285 -1.68981
3.39664 0.515957 -1.68981
3.39449 0.52959 -1.68981
3.39234 0.543281 -1.68981
3.3902 0.556895 -1.68981
3.38789 0.570527 -1.68981
3.38559 0.584141 -1.68981
3.3832 0.597734 -1.68981
3.38074 0.611309 -1.68981
3.37828 0.624922 -1.68981
3.37574 0.638477 -1.68981
3.37316 0.652051 -1.68981
3.37051 0.665586 -1.68981
3.36777 0.67918 -1.68981
3.36504 0.692656 -1.68981
3.36223 0.706172 -1.68981
3.35938 0.719727 -1.68981
3.35645 0.733223 -1.68981
3.35344 0.746719 -1.68981
3.35043 0.760215 -1.68981
3.34738 0.773652 -1.68981
3.34422 0.78709 -1.68981
3.34102 0.800527 -1.68981
3.33777 0.813965 -1.68981
3.33453 0.827363 -1.68981
3.33113 0.840762 -1.68981
3.32773 0.854141 -1.68981
3.32426 0.8675 -1.68981
3.32074 0.880879 -1.68981
3.31719 0.894219 -1.68981
3.31355 0.907539 -1.68981
3.30988 0.92084 -1.68981
3.30613 0.934141 -1.68981
3.30238 0.947402 -1.68981
3.29855 0.960703 -1.68981
3.29469 0.973965 -1.68981
3.2907 0.987207 -1.68981
3.28672 1.00041 -1.68981
3.2827 1.01363 -1.68981
3.27859 1.02682 -1.68981
3.27441 1.03998 -1.68981
3.2702 1.05313 -1.68981
3.26594 1.06627 -1.68981
3.26164 1.07941 -1.68981
3.25727 1.09248 -1.68981
3.25285 1.10559 -1.68981
3.24836 1.11863 -1.68981
3.24383 1.1317 -1.68981
3.2393 1.14473 -1.68981
3.23465 1.15773 -1.68981
3.22996 1.17074 -1.68981
3.22523 1.18371 -1.68981
3.22043 1.19664 -1.68981
3.21562 1.20959 -1.68981
3.21074 1.2225 -1.68981
3.20578 1.23539 -1.68981
3.20078 1.24826 -1.68981
3.19574 1.26113 -1.68981
3.19066 1.27398 -1.68981
3.18551 1.28678 -1.68981
3.18031 1.29961 -1.68981
3.17504 1.31238 -1.68981
3.16973 1.3251 -1.68981
3.16441 1.33785 -1.68981
3.15898 1.35057 -1.68981
3.15355 1.36324 -1.68981
3.14805 1.37592 -1.68981
3.14246 1.38854 -1.68981
3.13687 1.40117 -1.68981
3.13121 1.41379 -1.68981
3.12551 1.42635 -1.68981
3.11977 1.43891 -1.68981
3.11395 1.45145 -1.68981
3.10812 1.46393 -1.68981
3.10219 1.47643 -1.68981
3.09625 1.48889 -1.68981
3.0902 1.50131 -1.68981
3.08414 1.51373 -1.68981
3.07801 1.52609 -1.68981
3.07191 1.53846 -1.68981
3.06566 1.55082 -1.68981
3.05941 1.56313 -1.68981
3.05309 1.57539 -1.68981
3.04672 1.58768 -1.68981
3.04035 1.59988 -1.68981
3.03391 1.61213 -1.68981
3.02734 1.6243 -1.68981
3.02082 1.63645 -1.68981
3.01422 1.64857 -1.68981
3.00758 1.66066 -1.68981
3.0009 1.67277 -1.68981
2.9941 1.68482 -1.68981
2.9873 1.69684 -1.68981
2.98043 1.70883 -1.68981
0.492344 0.284922 -0.279788
0.489844 0.286113 -0.279022
0.487344 0.287285 -0.278253
0.484844 0.288437 -0.277482
0.482305 0.28959 -0.276708
0.479805 0.290703 -0.275932
0.477266 0.291816 -0.275153
0.474727 0.292891 -0.274373
0.472227 0.293945 -0.273589
0.469687 0.295 -0.272805
0.467148 0.296035 -0.272018
0.46457 0.297031 -0.271229
0.462031 0.298027 -0.270438
0.459492 0.299004 -0.269646
0.456953 0.299961 -0.268852
0.454414 0.300898 -0.268057
0.451836 0.301816 -0.26726
0.449297 0.302754 -0.266462
0.446719 0.303633 -0.265663
0.444297 0.304609 -0.264951
0.442109 0.305723 -0.264372
0.439922 0.306816 -0.263792
0.437695 0.30791 -0.263211
0.435508 0.308984 -0.262627
0.433281 0.310039 -0.262043
0.431055 0.311074 -0.261457
0.428828 0.312109 -0.26087
0.426602 0.313105 -0.260281
0.424375 0.314102 -0.259691
0.422148 0.315098 -0.259099
0.419922 0.316055 -0.258507
0.417695 0.317031 -0.257914
0.415469 0.317969 -0.257319
0.413203 0.318906 -0.256723
0.410977 0.319805 -0.256126
0.408711 0.320703 -0.255529
0.406484 0.321602 -0.25493
0.404219 0.322461 -0.25433
0.401992 0.32332 -0.25373
0.399727 0.32416 -0.253129
0.397461 0.325 -0.252526
0.395195 0.325801 -0.251924
0.392969 0.326602 -0.25132
0.390703 0.327402 -0.250717
0.388437 0.328164 -0.250112
0.386172 0.328926 -0.249507
0.383906 0.329688 -0.248901
0.381641 0.33043 -0.248294
0.379414 0.331152 -0.247688
0.377148 0.331855 -0.24708
0.375508 0.333105 -0.24689
0.374102 0.334551 -0.246847
0.372695 0.335996 -0.246803
0.37125 0.337422 -0.246759
0.369844 0.338848 -0.246714
0.368398 0.340273 -0.246668
0.366953 0.34168 -0.246622
0.365508 0.343086 -0.246574
0.364062 0.344492 -0.246526
0.362617 0.345879 -0.246478
0.361133 0.347266 -0.246428
0.359648 0.348652 -0.246378
0.358164 0.35002 -0.246327
0.35668 0.351387 -0.246276
0.355195 0.352734 -0.246224
0.353711 0.354082 -0.246171
0.352187 0.355449 -0.246117
0.350703 0.356777 -0.246063
0.34918 0.358105 -0.246008
0.347656 0.359414 -0.245952
0.346133 0.360723 -0.245896
0.344609 0.362031 -0.245839
0.343047 0.36334 -0.245781
0.341562 0.364609 -0.245723
0.34 0.365898 -0.245664
0.338437 0.367168 -0.245604
0.336875 0.368437 -0.245543
0.335312 0.369687 -0.245482
0.33375 0.370937 -0.24542
0.332148 0.372187 -0.245358
0.330586 0.373418 -0.245294
0.328984 0.374648 -0.24523
0.327383 0.375879 -0.245166
0.325781 0.37709 -0.245101
0.32418 0.378281 -0.245035
0.322578 0.379492 -0.244968
0.320937 0.380684 -0.244901
0.319336 0.381875 -0.244833
0.317695 0.383047 -0.244765
0.316055 0.384199 -0.244695
0.314414 0.385371 -0.244626
0.312773 0.386504 -0.244555
0.311133 0.387656 -0.244484
0.309492 0.388789 -0.244412
0.307812 0.389902 -0.244339
0.306172 0.391035 -0.244266
0.304492 0.392129 -0.244193
0.302812 0.393242 -0.244118
0.301172 0.394336 -0.244043
0.299492 0.39541 -0.243968
0.297773 0.396484 -0.243892
0.296094 0.397559 -0.243815
0.294453 0.398672 -0.243773
0.292852 0.399844 -0.243774
0.29125 0.401035 -0.243774
0.289609 0.402187 -0.243773
0.288008 0.403359 -0.243772
0.286367 0.404512 -0.24377
0.284727 0.405664 -0.243767
0.283086 0.406797 -0.243764
0.281445 0.40793 -0.24376
0.279805 0.409043 -0.243755
0.278164 0.410156 -0.24375
0.276484 0.41125 -0.243745
0.274844 0.412363 -0.243738
0.273164 0.413437 -0.243731
0.271484 0.414531 -0.243724
0.269805 0.415605 -0.243716
0.268125 0.41666 -0.243707
0.266445 0.417715 -0.243698
0.264766 0.41877 -0.243688
0.263047 0.419805 -0.243677
0.261367 0.42084 -0.243666
0.259648 0.421875 -0.243654
0.25793 0.422891 -0.243642
0.256211 0.423926 -0.243629
0.254492 0.424922 -0.243616
0.252773 0.425918 -0.243601
0.251055 0.426895 -0.243587
0.249297 0.427871 -0.243571
0.247617 0.428848 -0.243555
0.245859 0.429805 -0.243538
0.244102 0.430762 -0.243521
0.242344 0.431719 -0.243503
0.240586 0.432637 -0.243485
0.238828 0.433574 -0.243466
0.23707 0.434492 -0.243446
0.235312 0.43541 -0.243426
0.233555 0.436309 -0.243405
0.231758 0.437207 -0.243384
0.229961 0.438086 -0.243362
0.228203 0.438965 -0.243339
0.226406 0.439844 -0.243316
0.224609 0.440703 -0.243292
0.222812 0.441582 -0.243268
0.221016 0.442422 -0.243242
0.219219 0.443262 -0.243217
0.217422 0.444082 -0.243191
0.215586 0.444922 -0.243164
0.213789 0.445723 -0.243137
0.211953 0.446523 -0.243109
0.210156 0.447324 -0.24308
0.20832 0.448105 -0.243051
0.206484 0.448887 -0.243021
0.204648 0.449648 -0.242991
0.202812 0.45041 -0.24296
0.200977 0.451172 -0.242929
0.199141 0.451914 -0.242897
0.197305 0.452637 -0.242864
0.19543 0.453379 -0.242831
0.193594 0.454082 -0.242797
0.191758 0.454824 -0.242762
0.189883 0.455527 -0.242727
0.188008 0.456211 -0.242692
0.186172 0.456895 -0.242655
0.184297 0.457559 -0.242619
0.182422 0.458242 -0.242581
0.180586 0.458945 -0.242573
0.17875 0.459727 -0.242608
0.176914 0.460508 -0.242642
0.175078 0.461289 -0.242675
0.173281 0.462051 -0.242709
0.171445 0.462793 -0.242742
0.16957 0.463535 -0.242774
0.167734 0.464277 -0.242806
0.165898 0.46502 -0.242837
0.164062 0.465742 -0.242868
0.162188 0.466445 -0.242899
0.160352 0.467148 -0.242929
0.158477 0.467871 -0.242958
0.156602 0.468555 -0.242987
0.154727 0.469238 -0.243016
0.152891 0.469902 -0.243044
0.151016 0.470566 -0.243071
0.149141 0.47123 -0.243099
0.147227 0.471875 -0.243125
0.145352 0.4725 -0.243151
0.143477 0.473145 -0.243177
0.141602 0.47375 -0.243202
0.139687 0.474375 -0.243227
0.137812 0.47498 -0.243251
0.135898 0.475566 -0.243275
0.133984 0.476152 -0.243298
0.132109 0.476738 -0.243321
0.130195 0.477305 -0.243343
0.128281 0.477871 -0.243365
0.126367 0.478437 -0.243386
0.124453 0.478984 -0.243407
0.122539 0.479512 -0.243427
0.120625 0.480039 -0.243447
0.118711 0.480566 -0.243466
0.116797 0.481074 -0.243485
0.114844 0.481582 -0.243504
0.11293 0.48207 -0.243522
0.110977 0.482539 -0.243539
0.109063 0.483027 -0.243556
0.107109 0.483496 -0.243572
0.105195 0.483945 -0.243588
0.103242 0.484395 -0.243604
0.101289 0.484844 -0.243618
0.099375 0.485273 -0.243633
0.0974219 0.485684 -0.243647
0.0954687 0.486094 -0.24366
0.0935156 0.486523 -0.243673
0.0915625 0.486914 -0.243685
0.0896094 0.487305 -0.243697
0.0876562 0.487695 -0.243709
0.0857031 0.488047 -0.243719
0.08375 0.488418 -0.24373
0.0817578 0.48877 -0.24374
0.0798047 0.489102 -0.243749
0.0778516 0.489434 -0.243758
0.0758984 0.489766 -0.243767
0.0739063 0.490078 -0.243775
0.0719531 0.490391 -0.243782
0.0699609 0.490684 -0.243789
0.0680078 0.490977 -0.243795
0.0660156 0.49125 -0.243801
0.0640625 0.491523 -0.243807
0.0620703 0.491816 -0.243811
0.0601172 0.49207 -0.243816
0.058125 0.492305 -0.24382
0.0561328 0.492539 -0.243823
0.0541797 0.492773 -0.243826
0.0521875 0.492988 -0.243829
0.0501953 0.493203 -0.24383
0.0482812 0.493398 -0.243832
0.0462891 0.493594 -0.243833
0.0442969 0.49377 -0.243833
0.0423047 0.493945 -0.243833
0.0403125 0.494121 -0.243836
0.0383203 0.494277 -0.24384
0.0363672 0.494434 -0.243844
0.034375 0.49457 -0.243847
0.0323828 0.494727 -0.243849
0.0303906 0.494844 -0.243851
0.0283984 0.49498 -0.243852
0.0264062 0.495098 -0.243853
0.0244141 0.495195 -0.243854
0.0224219 0.495293 -0.243854
0.0204297 0.495371 -0.243853
0.0184375 0.495449 -0.243852
0.0164453 0.495508 -0.243851
0.0144531 0.495566 -0.243849
0.0124609 0.495625 -0.243846
0.0104687 0.495664 -0.243843
0.00847656 0.495684 -0.24384
0.00648437 0.495703 -0.243835
0.00449219 0.495723 -0.243831
0.0025 0.495723 -0.243826
0.000507812 0.495723 -0.24382
-0.00148437 0.495723 -0.243823
-0.00347656 0.495742 -0.243828
-0.00546875 0.495723 -0.243833
-0.00746094 0.495703 -0.243837
-0.00945312 0.495684 -0.243841
-0.0114453 0.495645 -0.243845
-0.0134375 0.495605 -0.243847
-0.0154297 0.495547 -0.24385
-0.0174219 0.495488 -0.243851
-0.0194141 0.49541 -0.243853
-0.0214063 0.495332 -0.243854
-0.0233984 0.495234 -0.243854
-0.0253906 0.495137 -0.243854
-0.0273828 0.49502 -0.243853
-0.029375 0.494902 -0.243852
-0.0313672 0.494785 -0.24385
-0.0333594 0.494648 -0.243848
-0.0353125 0.494531 -0.243845
-0.0373047 0.494375 -0.243842
-0.0392969 0.494199 -0.243838
-0.0412891 0.494043 -0.243834
-0.0432812 0.493867 -0.243833
-0.0452734 0.493691 -0.243833
-0.0472266 0.493496 -0.243832
-0.0492578 0.493301 -0.243831
-0.05125 0.493086 -0.243829
-0.0532422 0.492871 -0.243828
-0.0551953 0.492656 -0.243825
-0.0571875 0.492422 -0.243822
-0.0591797 0.492168 -0.243818
-0.0611328 0.491914 -0.243814
-0.063125 0.49166 -0.243809
-0.0650781 0.491387 -0.243804
-0.0670703 0.491133 -0.243798
-0.0690234 0.49084 -0.243792
-0.0710156 0.490547 -0.243785
-0.0729688 0.490254 -0.243778
-0.0749609 0.489941 -0.243771
-0.0769141 0.489609 -0.243763
-0.0788672 0.489277 -0.243754
-0.0808203 0.488945 -0.243745
-0.0828125 0.488594 -0.243735
-0.0847656 0.488223 -0.243725
-0.0867187 0.487871 -0.243714
-0.0886719 0.48748 -0.243703
-0.090625 0.487109 -0.243692
-0.0925781 0.486719 -0.243679
-0.0945312 0.486309 -0.243667
-0.0964844 0.485898 -0.243654
-0.0984375 0.485469 -0.24364
-0.100391 0.485059 -0.243626
-0.102305 0.484629 -0.243611
-0.104258 0.48418 -0.243596
-0.106211 0.48373 -0.24358
-0.108125 0.483262 -0.243564
-0.110078 0.482793 -0.243547
-0.111992 0.482305 -0.24353
-0.113906 0.481816 -0.243513
-0.115859 0.481328 -0.243495
-0.117773 0.48082 -0.243476
-0.119687 0.480293 -0.243457
-0.121602 0.479766 -0.243437
-0.123555 0.479238 -0.243417
-0.125469 0.478691 -0.243397
-0.127344 0.478145 -0.243376
-0.129258 0.477578 -0.243354
-0.131172 0.477012 -0.243332
-0.133086 0.476465 -0.24331
-0.135 0.475879 -0.243286
-0.136875 0.475293 -0.243263
-0.138789 0.474687 -0.243239
-0.140664 0.474063 -0.243215
-0.142578 0.473457 -0.24319
-0.144453 0.472832 -0.243164
-0.146328 0.472187 -0.243138
-0.148203 0.471543 -0.243112
-0.150078 0.470898 -0.243085
-0.151953 0.470234 -0.243058
-0.153828 0.46957 -0.24303
-0.155703 0.468887 -0.243002
-0.157578 0.468203 -0.242973
-0.159414 0.4675 -0.242943
-0.161289 0.466797 -0.242914
-0.163125 0.466094 -0.242883
-0.165 0.465391 -0.242853
-0.166836 0.464668 -0.242822
-0.168672 0.463926 -0.24279
-0.170508 0.463184 -0.242758
-0.172344 0.462422 -0.242725
-0.17418 0.46166 -0.242692
-0.176016 0.460898 -0.242659
-0.177852 0.460117 -0.242625
-0.179688 0.459336 -0.24259
-0.181484 0.458555 -0.242563
-0.183359 0.457891 -0.242601
-0.185234 0.457227 -0.242637
-0.187109 0.456543 -0.242674
-0.188945 0.455859 -0.24271
-0.19082 0.455156 -0.242745
-0.192656 0.454453 -0.24278
-0.194531 0.45373 -0.242814
-0.196367 0.453027 -0.242847
-0.198203 0.452285 -0.24288
-0.200078 0.451562 -0.242913
-0.201914 0.450801 -0.242944
-0.20375 0.450039 -0.242976
-0.205586 0.449277 -0.243006
-0.207383 0.448496 -0.243036
-0.209219 0.447715 -0.243066
-0.211055 0.446934 -0.243095
-0.212852 0.446133 -0.243123
-0.214687 0.445312 -0.243151
-0.216484 0.444492 -0.243178
-0.21832 0.443672 -0.243204
-0.220117 0.442832 -0.24323
-0.221914 0.441992 -0.243255
-0.223711 0.441133 -0.24328
-0.225508 0.440273 -0.243304
-0.227305 0.439414 -0.243328
-0.229062 0.438555 -0.243351
-0.230859 0.437676 -0.243373
-0.232617 0.436777 -0.243395
-0.234414 0.435879 -0.243416
-0.236172 0.434961 -0.243436
-0.23793 0.434043 -0.243457
-0.239687 0.433105 -0.243476
-0.241445 0.432187 -0.243494
-0.243203 0.43123 -0.243513
-0.244961 0.430293 -0.24353
-0.246719 0.429336 -0.243547
-0.248477 0.428359 -0.243563
-0.250234 0.427383 -0.243579
-0.251953 0.426406 -0.243594
-0.253672 0.42541 -0.243609
-0.255391 0.424414 -0.243623
-0.257109 0.423398 -0.243636
-0.258828 0.422383 -0.243649
-0.260547 0.421367 -0.243661
-0.262227 0.420352 -0.243672
-0.263945 0.419316 -0.243683
-0.265625 0.418262 -0.243693
-0.267305 0.417207 -0.243703
-0.269023 0.416133 -0.243712
-0.270703 0.415078 -0.24372
-0.272344 0.413984 -0.243728
-0.274023 0.41291 -0.243735
-0.275703 0.411816 -0.243742
-0.277344 0.410703 -0.243748
-0.279023 0.40959 -0.243753
-0.280664 0.408477 -0.243758
-0.282305 0.407344 -0.243762
-0.283945 0.406211 -0.243766
-0.285586 0.405078 -0.243768
-0.287187 0.403926 -0.243771
-0.288828 0.402773 -0.243773
-0.29043 0.401602 -0.243774
-0.29207 0.40043 -0.243774
-0.293672 0.399277 -0.243774
-0.295273 0.398105 -0.243776
-0.296953 0.397031 -0.243854
-0.298633 0.395957 -0.24393
-0.300312 0.394883 -0.244006
-0.301992 0.393789 -0.244081
-0.303672 0.392695 -0.244156
-0.305352 0.391582 -0.24423
-0.306992 0.390469 -0.244303
-0.308672 0.389355 -0.244376
-0.310312 0.388223 -0.244449
-0.311953 0.38707 -0.24452
-0.313594 0.385937 -0.244591
-0.315234 0.384785 -0.244661
-0.316875 0.383613 -0.24473
-0.318516 0.382441 -0.244799
-0.320117 0.38127 -0.244867
-0.321758 0.380078 -0.244935
-0.323359 0.378887 -0.245002
-0.324961 0.377676 -0.245068
-0.326562 0.376504 -0.245134
-0.328164 0.375273 -0.245198
-0.329766 0.374043 -0.245263
-0.331367 0.372812 -0.245326
-0.33293 0.371582 -0.245389
-0.334492 0.370332 -0.245451
-0.336055 0.369082 -0.245513
-0.337656 0.367812 -0.245574
-0.33918 0.366543 -0.245634
-0.340742 0.365254 -0.245694
-0.342344 0.363965 -0.245752
-0.343867 0.362676 -0.24581
-0.345391 0.361367 -0.245868
-0.346953 0.360059 -0.245925
-0.348477 0.35875 -0.245981
-0.349961 0.357422 -0.246036
-0.351484 0.356094 -0.24609
-0.353008 0.354746 -0.246145
-0.354492 0.353418 -0.246198
-0.355977 0.352051 -0.24625
-0.357461 0.350703 -0.246302
-0.358945 0.349355 -0.246353
-0.36043 0.347969 -0.246404
-0.361914 0.346582 -0.246454
-0.363359 0.345195 -0.246503
-0.364805 0.343809 -0.246551
-0.36625 0.342402 -0.246598
-0.367695 0.340977 -0.246645
-0.369141 0.33957 -0.246691
-0.370586 0.338145 -0.246737
-0.371992 0.336719 -0.246781
-0.373398 0.335273 -0.246825
-0.374805 0.333828 -0.246869
-0.376211 0.332363 -0.246911
-0.378281 0.331484 -0.247386
-0.380547 0.330781 -0.247993
-0.382812 0.330039 -0.2486
-0.385078 0.329316 -0.249206
-0.387305 0.328555 -0.249811
-0.38957 0.327773 -0.250416
-0.391836 0.327012 -0.251021
-0.394102 0.32623 -0.251625
-0.396367 0.32541 -0.252228
-0.398594 0.32459 -0.25283
-0.400859 0.32375 -0.253432
-0.403125 0.322891 -0.254032
-0.405352 0.322031 -0.254633
-0.407617 0.321152 -0.255232
-0.409844 0.320254 -0.25583
-0.412109 0.319355 -0.256427
-0.414336 0.318437 -0.257024
-0.416562 0.3175 -0.257619
-0.418789 0.316543 -0.258213
-0.421055 0.315586 -0.258806
-0.423281 0.314629 -0.259398
-0.425508 0.313633 -0.259988
-0.427734 0.312617 -0.260578
-0.429961 0.311602 -0.261166
-0.432148 0.310566 -0.261753
-0.434375 0.309512 -0.262338
-0.436602 0.308437 -0.262922
-0.438789 0.307363 -0.263504
-0.440977 0.30627 -0.264085
-0.443203 0.305156 -0.264664
-0.44543 0.304062 -0.265265
-0.447969 0.303184 -0.266066
-0.450547 0.302285 -0.266864
-0.453125 0.301367 -0.267662
-0.455664 0.300449 -0.268458
-0.458281 0.299492 -0.269253
-0.46082 0.298535 -0.270046
-0.463359 0.297539 -0.270838
-0.465898 0.296543 -0.271627
-0.468437 0.295527 -0.272415
-0.470977 0.294473 -0.273201
-0.473516 0.293418 -0.273985
-0.476055 0.292344 -0.274767
-0.478594 0.29125 -0.275546
-0.481094 0.290137 -0.276324
-0.483633 0.289004 -0.277099
-0.486133 0.287871 -0.277872
-0.488633 0.286719 -0.278642
-0.491133 0.285527 -0.279409
-2.79516 1.61004 -1.58656
-2.8016 1.59877 -1.58656
-2.80801 1.5875 -1.58656
-2.81437 1.57617 -1.58656
-2.82066 1.5649 -1.58656
-2.82691 1.55355 -1.58656
-2.83316 1.54215 -1.58656
-2.83934 1.53074 -1.58656
-2.84551 1.5193 -1.58656
-2.85156 1.50789 -1.58656
-2.85762 1.49639 -1.58656
-2.86355 1.4849 -1.58656
-2.86953 1.47338 -1.58656
-2.87543 1.46184 -1.58656
-2.88129 1.45027 -1.58656
-2.88711 1.43865 -1.58656
-2.89285 1.42703 -1.58656
-2.89859 1.41541 -1.58656
-2.90422 1.40373 -1.58656
-2.90988 1.39205 -1.58656
-2.91543 1.38037 -1.58656
-2.92094 1.36863 -1.58656
-2.92641 1.35687 -1.58656
-2.93184 1.3451 -1.58656
-2.93727 1.3333 -1.58656
-2.94262 1.32143 -1.58656
-2.94785 1.30965 -1.58656
-2.95309 1.29777 -1.58656
-2.95828 1.2859 -1.58656
-2.96344 1.27398 -1.58656
-2.96855 1.26207 -1.58656
-2.97359 1.25012 -1.58656
-2.97859 1.23818 -1.58656
-2.98352 1.22619 -1.58656
-2.98844 1.21416 -1.58656
-2.99332 1.20217 -1.58656
-2.99812 1.1901 -1.58656
-3.00289 1.17805 -1.58656
-3.00758 1.16596 -1.58656
-3.01223 1.15389 -1.58656
-3.01688 1.14176 -1.58656
-3.02145 1.12961 -1.58656
-3.02594 1.11744 -1.58656
-3.03039 1.10527 -1.58656
-3.03484 1.09311 -1.58656
-3.03922 1.08086 -1.58656
-3.04355 1.06867 -1.58656
-3.04777 1.05643 -1.58656
-3.05203 1.04416 -1.58656
-3.05617 1.03189 -1.58656
-3.06031 1.01957 -1.58656
-3.06437 1.00729 -1.58656
-3.0684 0.994941 -1.58656
-3.07238 0.982578 -1.58656
-3.07629 0.970273 -1.58656
-3.08016 0.957871 -1.58656
-3.08402 0.945469 -1.58656
-3.08777 0.933086 -1.58656
-3.09152 0.920664 -1.58656
-3.0952 0.908203 -1.58656
-3.09879 0.895781 -1.58656
-3.10242 0.883281 -1.58656
-3.10594 0.87084 -1.58656
-3.10938 0.85834 -1.58656
-3.11281 0.84582 -1.58656
-3.11617 0.83332 -1.58656
-3.11949 0.820781 -1.58656
-3.12277 0.808223 -1.58656
-3.12602 0.795664 -1.58656
-3.12918 0.783105 -1.58656
-3.1323 0.770488 -1.58656
-3.13539 0.757871 -1.58656
-3.13844 0.745293 -1.58656
-3.14141 0.732695 -1.58656
-3.1443 0.720039 -1.58656
-3.14715 0.707383 -1.58656
-3.15 0.694727 -1.58656
-3.15277 0.68207 -1.58656
-3.15547 0.669394 -1.58656
-3.15812 0.656719 -1.58656
-3.16074 0.643984 -1.58656
-3.16332 0.631289 -1.58656
-3.16582 0.618555 -1.58656
-3.16828 0.60584 -1.58656
-3.17066 0.593105 -1.58656
-3.17305 0.580352 -1.58656
-3.17531 0.567598 -1.58656
-3.17762 0.554844 -1.58656
-3.1798 0.542051 -1.58656
-3.18199 0.529258 -1.58656
-3.18402 0.516465 -1.58656
-3.18609 0.503652 -1.58656
-3.18812 0.49082 -1.58656
-3.19008 0.478008 -1.58656
-3.19199 0.465176 -1.58656
-3.19379 0.452363 -1.58656
-3.19562 0.439512 -1.58656
-3.19734 0.42666 -1.58656
-3.19902 0.413809 -1.58656
-3.20066 0.400918 -1.58656
-3.20227 0.388047 -1.58656
-3.20375 0.375195 -1.58656
-3.20527 0.362324 -1.58656
-3.20668 0.349453 -1.58656
-3.20809 0.336562 -1.58656
-3.20941 0.323633 -1.58656
-3.21066 0.310742 -1.58656
-3.21191 0.297832 -1.58656
-3.21309 0.284922 -1.58656
-3.21418 0.271992 -1.58656
-3.21523 0.259062 -1.58656
-3.21625 0.246152 -1.58656
-3.21727 0.233223 -1.58656
-3.21816 0.220273 -1.58656
-3.21898 0.207324 -1.58656
-3.2198 0.194414 -1.58656
-3.22059 0.181445 -1.58656
-3.22129 0.168496 -1.58656
-3.22191 0.155566 -1.58656
-3.22254 0.142598 -1.58656
-3.22309 0.129648 -1.58656
-3.22355 0.11668 -1.58656
-3.22402 0.103711 -1.58656
-3.22441 0.0907617 -1.58656
-3.22477 0.077793 -1.58656
-3.225 0.0648242 -1.58656
-3.22523 0.051875 -1.58656
-3.22547 0.0389063 -1.58656
-3.22559 0.025918 -1.58656
-3.22566 0.0129687 -1.58656
-3.13738 1.95312e-05 -1.58656
-3.13738 -0.0126172 -1.58656
-3.1373 -0.0252148 -1.58656
-3.13719 -0.037832 -1.58656
-3.13699 -0.0504492 -1.58656
-3.1368 -0.0630664 -1.58656
-3.13648 -0.0756641 -1.58656
-3.13617 -0.0882813 -1.58656
-3.13582 -0.100879 -1.58656
-3.13535 -0.113477 -1.58656
-3.13488 -0.126113 -1.58656
-3.13434 -0.138672 -1.58656
-3.13375 -0.151289 -1.58656
-3.13312 -0.163887 -1.58656
-3.13246 -0.176465 -1.58656
-3.13172 -0.189082 -1.58656
-3.13094 -0.20168 -1.58656
-3.13004 -0.214238 -1.58656
-3.12922 -0.226816 -1.58656
-3.12828 -0.239414 -1.58656
-3.1273 -0.251973 -1.58656
-3.12625 -0.264531 -1.58656
-3.12516 -0.277109 -1.58656
-3.12402 -0.289668 -1.58656
-3.12281 -0.302207 -1.58656
-3.1216 -0.314785 -1.58656
-3.12031 -0.327305 -1.58656
-3.11891 -0.339844 -1.58656
-3.11758 -0.352402 -1.58656
-3.11613 -0.364941 -1.58656
-3.11461 -0.377422 -1.58656
-3.11309 -0.389961 -1.58656
-3.11145 -0.402461 -1.58656
-3.10984 -0.414941 -1.58656
-3.10816 -0.427461 -1.58656
-3.10641 -0.439961 -1.58656
-3.10461 -0.452441 -1.58656
-3.10273 -0.464922 -1.58656
-3.1009 -0.477422 -1.58656
-3.09895 -0.489863 -1.58656
-3.09691 -0.502305 -1.58656
-3.09492 -0.514766 -1.58656
-3.09277 -0.527207 -1.58656
-3.09066 -0.539609 -1.58656
-3.08848 -0.552031 -1.58656
-3.08621 -0.564453 -1.58656
-3.08391 -0.576855 -1.58656
-3.08156 -0.589258 -1.58656
-3.07918 -0.601621 -1.58656
-3.07676 -0.613984 -1.58656
-3.07426 -0.626367 -1.58656
-3.07172 -0.63873 -1.58656
-3.0691 -0.651074 -1.58656
-3.06645 -0.663398 -1.58656
-3.06379 -0.675723 -1.58656
-3.06102 -0.688027 -1.58656
-3.05824 -0.700332 -1.58656
-3.05539 -0.712598 -1.58656
-3.0525 -0.724883 -1.58656
-3.04961 -0.737168 -1.58656
-3.0466 -0.749395 -1.58656
-3.04355 -0.761621 -1.58656
-3.04047 -0.773906 -1.58656
-3.0373 -0.786094 -1.58656
-3.03414 -0.798301 -1.58656
-3.03094 -0.810488 -1.58656
-3.02766 -0.822656 -1.58656
-3.0243 -0.834824 -1.58656
-3.02094 -0.846973 -1.58656
-3.01746 -0.859121 -1.58656
-3.01402 -0.87125 -1.58656
-3.01051 -0.883359 -1.58656
-3.00691 -0.895449 -1.58656
-3.00328 -0.90752 -1.58656
-2.99961 -0.91959 -1.58656
-2.99594 -0.93166 -1.58656
-2.99215 -0.943672 -1.58656
-2.98832 -0.955684 -1.58656
-2.98445 -0.967715 -1.58656
-2.98051 -0.979687 -1.58656
-2.97656 -0.99168 -1.58656
-2.97258 -1.00363 -1.58656
-2.96848 -1.01557 -1.58656
-2.96438 -1.0275 -1.58656
-2.9602 -1.03939 -1.58656
-2.95602 -1.05129 -1.58656
-2.9518 -1.06316 -1.58656
-2.9475 -1.075 -1.58656
-2.94313 -1.08687 -1.58656
-2.93875 -1.09869 -1.58656
-2.9343 -1.11049 -1.58656
-2.92984 -1.12229 -1.58656
-2.92527 -1.13404 -1.58656
-2.9207 -1.1458 -1.58656
-2.91605 -1.15752 -1.58656
-2.91137 -1.16924 -1.58656
-2.90664 -1.18094 -1.58656
-2.90191 -1.19262 -1.58656
-2.89707 -1.20426 -1.58656
-2.89223 -1.2159 -1.58656
-2.8873 -1.22752 -1.58656
-2.88234 -1.2391 -1.58656
-2.87734 -1.25068 -1.58656
-2.8723 -1.26225 -1.58656
-2.86719 -1.27377 -1.58656
-2.86207 -1.28529 -1.58656
-2.85684 -1.2968 -1.58656
-2.85164 -1.30826 -1.58656
-2.84637 -1.31973 -1.58656
-2.84102 -1.33117 -1.58656
-2.83562 -1.34256 -1.58656
-2.8302 -1.35396 -1.58656
-2.82473 -1.36531 -1.58656
-2.81922 -1.37666 -1.58656
-2.81371 -1.38799 -1.58656
-2.80809 -1.3993 -1.58656
-2.80242 -1.41055 -1.58656
-2.79676 -1.4218 -1.58656
-2.79102 -1.43305 -1.58656
-2.7852 -1.44424 -1.58656
-2.77941 -1.45545 -1.58656
-2.77352 -1.4666 -1.58656
-2.76762 -1.47773 -1.58656
