ply
format ascii 1.0
comment Created by Open3D
element vertex 1772
property float x
property float y
property float z
end_header
-0.455508 0.488242 -0.274962
-0.459834 0.488926 -0.27639
-0.464199 0.489609 -0.277825
-0.468584 0.490273 -0.279269
-0.472998 0.490918 -0.280721
-0.477441 0.491562 -0.282181
-0.481904 0.492188 -0.28365
-0.486396 0.492793 -0.285126
-0.490918 0.493398 -0.28661
-0.495469 0.493984 -0.288103
-0.500039 0.494551 -0.289604
-0.504639 0.495098 -0.291113
-0.509268 0.495645 -0.292629
-0.513916 0.496152 -0.294154
-2.78523 2.6674 -1.58803
-2.79594 2.65619 -1.58803
-2.80659 2.64492 -1.58803
-2.81721 2.63361 -1.58803
-2.82777 2.62227 -1.58803
-2.83827 2.6109 -1.58803
-2.84875 2.59945 -1.58803
-2.85918 2.58797 -1.58803
-2.86956 2.57646 -1.58803
-2.8799 2.56488 -1.58803
-2.89018 2.55332 -1.58803
-2.90042 2.54166 -1.58803
-2.91062 2.52998 -1.58803
-2.92077 2.51828 -1.58803
-2.93087 2.5065 -1.58803
-2.94093 2.49471 -1.58803
-2.95092 2.48287 -1.58803
-2.96088 2.471 -1.58803
-2.97079 2.45904 -1.58803
-2.98064 2.44707 -1.58803
-2.99047 2.43508 -1.58803
-3.00022 2.42303 -1.58803
-3.00994 2.41094 -1.58803
-3.01961 2.39885 -1.58803
-3.02924 2.38668 -1.58803
-3.03881 2.37449 -1.58803
-3.04831 2.36227 -1.58803
-3.05778 2.35 -1.58803
-3.06722 2.33766 -1.58803
-3.07659 2.32535 -1.58803
-3.08592 2.31295 -1.58803
-3.09518 2.30053 -1.58803
-3.1044 2.28805 -1.58803
-3.11358 2.27555 -1.58803
-3.1227 2.26301 -1.58803
-3.13177 2.25047 -1.58803
-3.14079 2.23787 -1.58803
-3.14977 2.2252 -1.58803
-3.15868 2.21252 -1.58803
-3.16755 2.1998 -1.58803
-3.17637 2.18705 -1.58803
-3.18515 2.17428 -1.58803
-3.19385 2.16146 -1.58803
-3.20252 2.14859 -1.58803
-3.21112 2.13572 -1.58803
-3.21969 2.12279 -1.58803
-3.22819 2.1098 -1.58803
-3.23664 2.0968 -1.58803
-3.24505 2.08377 -1.58803
-3.2534 2.07074 -1.58803
-3.2617 2.05762 -1.58803
-3.26994 2.04449 -1.58803
-3.27813 2.03135 -1.58803
-3.28628 2.01814 -1.58803
-3.29437 2.00492 -1.58803
-3.30239 1.99166 -1.58803
-3.31037 1.97838 -1.58803
-3.3183 1.96504 -1.58803
-3.32618 1.95168 -1.58803
-3.33399 1.93828 -1.58803
-3.34176 1.92488 -1.58803
-3.34946 1.91145 -1.58803
-3.35713 1.89795 -1.58803
-3.36474 1.88443 -1.58803
-3.37229 1.8709 -1.58803
-3.37978 1.85732 -1.58803
-3.38721 1.84373 -1.58803
-3.3946 1.8301 -1.58803
-3.40192 1.81643 -1.58803
-3.4092 1.80275 -1.58803
-3.41643 1.78902 -1.58803
-3.42357 1.77527 -1.58803
-3.43069 1.7615 -1.58803
-3.43774 1.74768 -1.58803
-3.44475 1.73387 -1.58803
-3.45168 1.72 -1.58803
-3.45857 1.70611 -1.58803
-3.46541 1.69219 -1.58803
-3.47218 1.67826 -1.58803
-3.47891 1.66428 -1.58803
-3.48556 1.65027 -1.58803
-3.49216 1.63625 -1.58803
-3.49872 1.62217 -1.58803
-3.5052 1.60812 -1.58803
-3.51164 1.59402 -1.58803
-3.51802 1.57992 -1.58803
-3.52434 1.56574 -1.58803
-3.53061 1.55156 -1.58803
-3.53682 1.53738 -1.58803
-3.54297 1.52312 -1.58803
-3.54906 1.50887 -1.58803
-3.55511 1.49461 -1.58803
-3.56108 1.48027 -1.58803
-3.567 1.46596 -1.58803
-3.57287 1.4516 -1.58803
-3.57867 1.43723 -1.58803
-3.58442 1.42285 -1.58803
-3.59012 1.40844 -1.58803
-3.59574 1.39398 -1.58803
-3.60132 1.37949 -1.58803
-3.60684 1.36502 -1.58803
-3.61229 1.35049 -1.58803
-3.6177 1.33598 -1.58803
-3.62304 1.32141 -1.58803
-3.62832 1.30682 -1.58803
-3.63354 1.29227 -1.58803
-3.63871 1.27764 -1.58803
-3.64382 1.26299 -1.58803
-3.64887 1.24834 -1.58803
-3.65386 1.23365 -1.58803
-3.65879 1.21895 -1.58803
-3.66365 1.20424 -1.58803
-3.66846 1.18951 -1.58803
-3.67322 1.17475 -1.58803
-3.67791 1.15998 -1.58803
-3.68254 1.14518 -1.58803
-3.68712 1.13037 -1.58803
-3.69163 1.11555 -1.58803
-3.69608 1.10068 -1.58803
-3.70048 1.0858 -1.58803
-3.70481 1.07094 -1.58803
-3.70908 1.05604 -1.58803
-3.7133 1.04111 -1.58803
-3.71746 1.02617 -1.58803
-3.72155 1.01123 -1.58803
-3.72559 0.99627 -1.58803
-3.72957 0.98127 -1.58803
-3.73349 0.966269 -1.58803
-3.73733 0.95127 -1.58803
-3.74112 0.936211 -1.58803
-3.74486 0.921152 -1.58803
-3.74854 0.906113 -1.58803
-3.75215 0.891016 -1.58803
-3.75569 0.875937 -1.58803
-3.75919 0.86082 -1.58803
-3.76263 0.845703 -1.58803
-3.76599 0.830586 -1.58803
-3.7693 0.815449 -1.58803
-3.77254 0.800293 -1.58803
-3.77573 0.785117 -1.58803
-3.77886 0.769922 -1.58803
-3.78191 0.754727 -1.58803
-3.78493 0.739531 -1.58803
-3.78786 0.724297 -1.58803
-3.79075 0.709062 -1.58803
-3.79356 0.693828 -1.58803
-3.79633 0.678594 -1.58803
-3.79902 0.663301 -1.58803
-3.80166 0.648027 -1.58803
-3.80423 0.632734 -1.58803
-3.80675 0.617441 -1.58803
-3.8092 0.602129 -1.58803
-3.81159 0.586797 -1.58803
-3.81393 0.571484 -1.58803
-3.81618 0.556133 -1.58803
-3.81839 0.540801 -1.58803
-3.82053 0.525469 -1.58803
-3.82262 0.510098 -1.58803
-3.82462 0.494727 -1.58803
-3.82659 0.479355 -1.58803
-3.82849 0.463984 -1.58803
-3.83032 0.448574 -1.58803
-3.83208 0.433184 -1.58803
-3.8338 0.417754 -1.58803
-3.83545 0.402324 -1.58803
-3.83704 0.386914 -1.58803
-3.83856 0.371484 -1.58803
-3.84002 0.356055 -1.58803
-3.84143 0.340625 -1.58803
-3.84277 0.325156 -1.58803
-3.84404 0.309727 -1.58803
-3.84525 0.294297 -1.58803
-3.84641 0.278828 -1.58803
-3.8475 0.263359 -1.58803
-3.84852 0.247891 -1.58803
-3.84948 0.232402 -1.58803
-3.85039 0.216934 -1.58803
-3.85124 0.201445 -1.58803
-3.85201 0.185957 -1.58803
-3.85272 0.170488 -1.58803
-3.85338 0.15498 -1.58803
-3.85397 0.139492 -1.58803
-3.8545 0.123984 -1.58803
-3.85497 0.108516 -1.58803
-3.85537 0.0930078 -1.58803
-3.85571 0.0775 -1.58803
-3.85601 0.0619922 -1.58803
-3.85621 0.0465234 -1.58803
-3.85637 0.0309961 -1.58803
-3.85646 0.0155078 -1.58803
-3.7383 -1.95312e-05 -1.58803
-3.73825 -0.0150195 -1.58803
-3.73816 -0.0300586 -1.58803
-3.73803 -0.0450781 -1.58803
-3.7378 -0.0600977 -1.58803
-3.73754 -0.0751367 -1.58803
-3.73721 -0.0901562 -1.58803
-3.73682 -0.105195 -1.58803
-3.73637 -0.120215 -1.58803
-3.73584 -0.135215 -1.58803
-3.73527 -0.150234 -1.58803
-3.73464 -0.165273 -1.58803
-3.73395 -0.180273 -1.58803
-3.73319 -0.195254 -1.58803
-3.73236 -0.210273 -1.58803
-3.73149 -0.225273 -1.58803
-3.73056 -0.240293 -1.58803
-3.72957 -0.255273 -1.58803
-3.72851 -0.270254 -1.58803
-3.72739 -0.285234 -1.58803
-3.72622 -0.300215 -1.58803
-3.72499 -0.315234 -1.58803
-3.72368 -0.330176 -1.58803
-3.72232 -0.345137 -1.58803
-3.72091 -0.360098 -1.58803
-3.71943 -0.375059 -1.58803
-3.7179 -0.39002 -1.58803
-3.7163 -0.404961 -1.58803
-3.71464 -0.419902 -1.58803
-3.71292 -0.434824 -1.58803
-3.71114 -0.449746 -1.58803
-3.7093 -0.464668 -1.58803
-3.7074 -0.47957 -1.58803
-3.70545 -0.494473 -1.58803
-3.70344 -0.509355 -1.58803
-3.70135 -0.524238 -1.58803
-3.69922 -0.539121 -1.58803
-3.69702 -0.554004 -1.58803
-3.69477 -0.568848 -1.58803
-3.69244 -0.583691 -1.58803
-3.69007 -0.598535 -1.58803
-3.68764 -0.613359 -1.58803
-3.68514 -0.628184 -1.58803
-3.68259 -0.642988 -1.58803
-3.67997 -0.657793 -1.58803
-3.67729 -0.672559 -1.58803
-3.67456 -0.687363 -1.58803
-3.67177 -0.702129 -1.58803
-3.66892 -0.716875 -1.58803
-3.666 -0.731602 -1.58803
-3.66304 -0.746328 -1.58803
-3.66 -0.761074 -1.58803
-3.65691 -0.775801 -1.58803
-3.65376 -0.790469 -1.58803
-3.65056 -0.805137 -1.58803
-3.64729 -0.819824 -1.58803
-3.64397 -0.834473 -1.58803
-3.64059 -0.849121 -1.58803
-3.63714 -0.86375 -1.58803
-3.63364 -0.878359 -1.58803
-3.63008 -0.892949 -1.58803
-3.62646 -0.907559 -1.58803
-3.62278 -0.922129 -1.58803
-3.61905 -0.936699 -1.58803
-3.61525 -0.95123 -1.58803
-3.6114 -0.965723 -1.58803
-3.60749 -0.980254 -1.58803
-3.60352 -0.994727 -1.58803
-3.59949 -1.00922 -1.58803
-3.59541 -1.02367 -1.58803
-3.59126 -1.03811 -1.58803
-3.58706 -1.05254 -1.58803
-3.5828 -1.06695 -1.58803
-3.57849 -1.08137 -1.58803
-3.57411 -1.09574 -1.58803
-3.56967 -1.11008 -1.58803
-3.56518 -1.12441 -1.58803
-3.56063 -1.13875 -1.58803
-3.55604 -1.15309 -1.58803
-3.55136 -1.16734 -1.58803
-3.54663 -1.1816 -1.58803
-3.54187 -1.19586 -1.58803
-3.53702 -1.21008 -1.58803
-3.53213 -1.2243 -1.58803
-2.31258 -0.812012 -1.04119
-2.30137 -0.818477 -1.03761
-2.29815 -0.827754 -1.03765
-2.29815 -0.838203 -1.03917
-3.50681 -1.29504 -1.58803
-3.50157 -1.30914 -1.58803
-3.49628 -1.32318 -1.58803
-3.49094 -1.33725 -1.58803
-3.48554 -1.35127 -1.58803
-3.48008 -1.36525 -1.58803
-3.47456 -1.37926 -1.58803
-3.46898 -1.39318 -1.58803
-3.46336 -1.40711 -1.58803
-3.45767 -1.42104 -1.58803
-3.45192 -1.43492 -1.58803
-3.44614 -1.44877 -1.58803
-3.44029 -1.46262 -1.58803
-3.43438 -1.47643 -1.58803
-3.42841 -1.49025 -1.58803
-3.4224 -1.50402 -1.58803
-3.41633 -1.51775 -1.58803
-3.4102 -1.5315 -1.58803
-3.404 -1.54518 -1.58803
-3.39776 -1.55885 -1.58803
-3.39147 -1.57252 -1.58803
-3.38513 -1.58613 -1.58803
-3.37873 -1.59973 -1.58803
-3.37227 -1.6133 -1.58803
-3.36575 -1.62684 -1.58803
-3.35919 -1.64035 -1.58803
-3.35257 -1.65383 -1.58803
-3.3459 -1.6673 -1.58803
-3.33916 -1.68074 -1.58803
-3.33238 -1.69414 -1.58803
-3.32554 -1.70752 -1.58803
-3.31865 -1.72088 -1.58803
-3.31171 -1.73418 -1.58803
-3.30471 -1.7475 -1.58803
-3.29766 -1.76078 -1.58803
-3.29055 -1.77402 -1.58803
-3.2834 -1.78725 -1.58803
-3.27618 -1.80041 -1.58803
-3.26892 -1.81359 -1.58803
-3.2616 -1.82672 -1.58803
-3.25423 -1.8398 -1.58803
-3.24681 -1.85287 -1.58803
-3.23933 -1.8659 -1.58803
-3.23181 -1.87893 -1.58803
-3.22423 -1.89187 -1.58803
-3.2166 -1.90482 -1.58803
-3.20892 -1.91775 -1.58803
-3.20117 -1.93062 -1.58803
-3.19339 -1.94348 -1.58803
-3.18555 -1.95631 -1.58803
-3.17767 -1.9691 -1.58803
-3.16973 -1.98186 -1.58803
-3.16172 -1.99459 -1.58803
-3.15368 -2.00729 -1.58803
-3.14559 -2.01994 -1.58803
-3.13744 -2.03256 -1.58803
-3.12926 -2.04518 -1.58803
-3.121 -2.05773 -1.58803
-2.31421 -1.53916 -1.18066
-2.31128 -1.55066 -1.18234
-2.30834 -1.56219 -1.18404
-2.30537 -1.57373 -1.18575
-2.30238 -1.58529 -1.18748
-2.29937 -1.59687 -1.18922
-2.29803 -1.60967 -1.19187
-2.29803 -1.62348 -1.19524
-2.29803 -1.63738 -1.19866
-2.29803 -1.65135 -1.20211
-2.29803 -1.66539 -1.2056
-2.29802 -1.67951 -1.20913
-3.00926 -2.21793 -1.58803
-3.00032 -2.23004 -1.58803
-2.99134 -2.24209 -1.58803
-2.98229 -2.25408 -1.58803
-2.9732 -2.26605 -1.58803
-2.96407 -2.27797 -1.58803
-2.95489 -2.28986 -1.58803
-2.94566 -2.30172 -1.58803
-2.93639 -2.31355 -1.58803
-2.92706 -2.32531 -1.58803
-2.91769 -2.33707 -1.58803
-2.90827 -2.34881 -1.58803
-2.8988 -2.36047 -1.58803
-2.8893 -2.37209 -1.58803
-2.87973 -2.38369 -1.58803
-2.87013 -2.39527 -1.58803
-2.86048 -2.40678 -1.58803
-2.85077 -2.41826 -1.58803
-2.84104 -2.42969 -1.58803
-2.83125 -2.44109 -1.58803
-2.82141 -2.45246 -1.58803
-2.81152 -2.46377 -1.58803
-2.8016 -2.47506 -1.58803
-2.79163 -2.48631 -1.58803
-2.78161 -2.49752 -1.58803
-2.77154 -2.50867 -1.58803
-2.31244 -2.11008 -1.32983
-2.30092 -2.11658 -1.32808
-2.29795 -2.13096 -1.3313
-2.30761 -2.15723 -1.34191
-2.29795 -2.16559 -1.34134
-2.29795 -2.18309 -1.34645
-2.69986 -2.58564 -1.58803
-2.68944 -2.5965 -1.58803
-2.67899 -2.60727 -1.58803
-2.6685 -2.61803 -1.58803
-2.65794 -2.62873 -1.58803
-2.64734 -2.63937 -1.58803
-2.63672 -2.65002 -1.58803
-2.62604 -2.66061 -1.58803
-2.61533 -2.67113 -1.58803
-2.60457 -2.68162 -1.58803
-2.32979 -2.41811 -1.42642
-2.30781 -2.41461 -1.41889
-2.29791 -2.42369 -1.41878
-2.31023 -2.45639 -1.43248
-2.29818 -2.46336 -1.43113
-2.2979 -2.48297 -1.43715
-2.5281 -2.75385 -1.58803
-2.51699 -2.76398 -1.58803
-2.50587 -2.77408 -1.58803
-2.4947 -2.78414 -1.58803
-2.48348 -2.79414 -1.58803
-2.47223 -2.8041 -1.58803
-2.46095 -2.81402 -1.58803
-2.44961 -2.82387 -1.58803
-2.43823 -2.83369 -1.58803
-2.42683 -2.8435 -1.58803
-2.41537 -2.85322 -1.58803
-2.40389 -2.86291 -1.58803
-2.39236 -2.87256 -1.58803
-2.38079 -2.88215 -1.58803
-2.36918 -2.8917 -1.58803
-2.35754 -2.90119 -1.58803
-2.34586 -2.91064 -1.58803
-2.33414 -2.92006 -1.58803
-2.32238 -2.92941 -1.58803
-2.3106 -2.93871 -1.58803
-2.29876 -2.94797 -1.58803
-2.28688 -2.95719 -1.58803
-2.27497 -2.96637 -1.58803
-2.26507 -2.97816 -1.58946
-2.26334 -3.00084 -1.5967
-2.23904 -2.99359 -1.58803
-2.22699 -3.00258 -1.58803
-2.21491 -3.01148 -1.58803
-2.20277 -3.02039 -1.58803
-2.19062 -3.0292 -1.58803
-2.17842 -3.03799 -1.58803
-2.16619 -3.04672 -1.58803
-2.15393 -3.05537 -1.58803
-2.14163 -3.06404 -1.58803
-2.1293 -3.07264 -1.58803
-2.11693 -3.08115 -1.58803
-2.10452 -3.08965 -1.58803
-2.09208 -3.09807 -1.58803
-2.08334 -3.11201 -1.59088
-2.08145 -3.13639 -1.59905
-2.07953 -3.16104 -1.60733
-2.07759 -3.18588 -1.61571
-2.07562 -3.21104 -1.6242
-2.07362 -3.23639 -1.63281
-2.07241 -3.26328 -1.64217
-2.0724 -3.29242 -1.65264
-2.0724 -3.32197 -1.66327
-0.523506 -0.846738 -0.422889
-0.508643 -0.830117 -0.413572
-0.494375 -0.81418 -0.404633
-0.480684 -0.798848 -0.396052
-0.467529 -0.784121 -0.387806
-0.454883 -0.769922 -0.379879
-0.442715 -0.75625 -0.372252
-0.430996 -0.743066 -0.364906
-0.380918 -0.662852 -0.324765
-0.378437 -0.664707 -0.324924
-0.375937 -0.666543 -0.325079
-0.373428 -0.668359 -0.325231
-0.370908 -0.670156 -0.325379
-0.368379 -0.671953 -0.325524
-0.36583 -0.673711 -0.325666
-0.363281 -0.675469 -0.325805
-0.360713 -0.677207 -0.32594
-0.358125 -0.678926 -0.326071
-0.355537 -0.680625 -0.326199
-0.35293 -0.682305 -0.326324
-0.350313 -0.683984 -0.326446
-0.347695 -0.685625 -0.326564
-0.345049 -0.687266 -0.326678
-0.342402 -0.688887 -0.32679
-0.339746 -0.690469 -0.326897
-0.33707 -0.692051 -0.327001
-0.334395 -0.693613 -0.327102
-0.331699 -0.695156 -0.327199
-0.328994 -0.696699 -0.327293
-0.326279 -0.698203 -0.327383
-0.323564 -0.699687 -0.327469
-0.32083 -0.701172 -0.327553
-0.318086 -0.702617 -0.327632
-0.315332 -0.704062 -0.327708
-0.312568 -0.705469 -0.327781
-0.309795 -0.706875 -0.32785
-0.307012 -0.708262 -0.327915
-0.304219 -0.709629 -0.327977
-0.301406 -0.710977 -0.328036
-0.298594 -0.712285 -0.328091
-0.295781 -0.713594 -0.328142
-0.292949 -0.714883 -0.328189
-0.290117 -0.716152 -0.328233
-0.287266 -0.717402 -0.328274
-0.284414 -0.718633 -0.328311
-0.281553 -0.719844 -0.328344
-0.278682 -0.721035 -0.328374
-0.275801 -0.722187 -0.3284
-0.27292 -0.72334 -0.328423
-0.27002 -0.724473 -0.328442
-0.267119 -0.725586 -0.328457
-0.264209 -0.72668 -0.328469
-0.261289 -0.727754 -0.328477
-0.258369 -0.728809 -0.328482
-0.255439 -0.729844 -0.328483
-0.2525 -0.730859 -0.32848
-0.249561 -0.731855 -0.328474
-1.2697 -3.77307 -1.69112
-1.25451 -3.77816 -1.69112
-1.23932 -3.78314 -1.69112
-1.22409 -3.78812 -1.69112
-1.20886 -3.79301 -1.69112
-1.19359 -3.79783 -1.69112
-1.17832 -3.80262 -1.69112
-1.16303 -3.8073 -1.69112
-1.14771 -3.81193 -1.69112
-1.13238 -3.81654 -1.69112
-1.11703 -3.82104 -1.69112
-1.10166 -3.82553 -1.69112
-1.08627 -3.8299 -1.69112
-1.07087 -3.83426 -1.69112
-1.05545 -3.83854 -1.69112
-1.04001 -3.84273 -1.69112
-1.02455 -3.84686 -1.69112
-1.00908 -3.85096 -1.69112
-0.993594 -3.855 -1.69112
-0.978086 -3.85895 -1.69112
-0.962568 -3.86287 -1.69112
-0.947021 -3.86668 -1.69112
-0.931475 -3.87047 -1.69112
-0.915908 -3.87416 -1.69112
-0.900332 -3.87783 -1.69112
-0.884736 -3.88143 -1.69112
-0.869121 -3.88494 -1.69112
-0.853496 -3.88842 -1.69112
-0.837861 -3.89182 -1.69112
-0.822217 -3.89516 -1.69112
-0.806543 -3.89844 -1.69112
-0.790869 -3.90162 -1.69112
-0.775176 -3.90477 -1.69112
-0.759473 -3.90785 -1.69112
-0.74376 -3.9109 -1.69112
-0.728037 -3.91383 -1.69112
-0.712285 -3.91676 -1.69112
-0.696543 -3.91959 -1.69112
-0.680771 -3.92234 -1.69112
-0.665 -3.92504 -1.69112
-0.649219 -3.92768 -1.69112
-0.633428 -3.93025 -1.69112
-0.617617 -3.93279 -1.69112
-0.601807 -3.93523 -1.69112
-0.585977 -3.93762 -1.69112
-0.570137 -3.93994 -1.69112
-0.554297 -3.94221 -1.69112
-0.538457 -3.94441 -1.69112
-0.522598 -3.94654 -1.69112
-0.506719 -3.94859 -1.69112
-0.49084 -3.95061 -1.69112
-0.474961 -3.95256 -1.69112
-0.459072 -3.95443 -1.69112
-0.443164 -3.95625 -1.69112
-0.427256 -3.95797 -1.69112
-0.411348 -3.95969 -1.69112
-0.39543 -3.96129 -1.69112
-0.379502 -3.96285 -1.69112
-0.363574 -3.96434 -1.69112
-0.347627 -3.96576 -1.69112
-0.331689 -3.96717 -1.69112
-0.315732 -3.96846 -1.69112
-0.299775 -3.96969 -1.69112
-0.283809 -3.97084 -1.69112
-0.267852 -3.97195 -1.69112
-0.251885 -3.97301 -1.69112
-0.235918 -3.97398 -1.69112
-0.219932 -3.97488 -1.69112
-0.203945 -3.97574 -1.69112
-0.187969 -3.97656 -1.69112
-0.171982 -3.97727 -1.69112
-0.155996 -3.97793 -1.69112
-0.14 -3.97852 -1.69112
-0.124004 -3.97904 -1.69112
-0.108008 -3.97951 -1.69112
-0.0920117 -3.9799 -1.69112
-0.0760059 -3.98025 -1.69112
-0.06 -3.98055 -1.69112
-0.0439941 -3.98074 -1.69112
-0.027998 -3.9809 -1.69112
-0.012002 -3.98096 -1.69112
0.00401367 -3.98098 -1.69112
0.0200098 -3.98094 -1.69112
0.0360254 -3.9808 -1.69112
0.0520215 -3.98066 -1.69112
0.0680176 -3.98041 -1.69112
0.0840137 -3.9801 -1.69112
0.10001 -3.97973 -1.69112
0.116006 -3.97928 -1.69112
0.132002 -3.97879 -1.69112
0.147998 -3.97822 -1.69112
0.163984 -3.9776 -1.69112
0.17998 -3.97689 -1.69112
0.195967 -3.97615 -1.69112
0.211943 -3.97533 -1.69112
0.22793 -3.97445 -1.69112
0.243906 -3.97348 -1.69112
0.259873 -3.97246 -1.69112
0.27584 -3.97141 -1.69112
0.291797 -3.97027 -1.69112
0.307754 -3.96906 -1.69112
0.323711 -3.96779 -1.69112
0.339668 -3.96645 -1.69112
0.355605 -3.96508 -1.69112
0.371533 -3.96361 -1.69112
0.387461 -3.96209 -1.69112
0.403389 -3.96049 -1.69112
0.419307 -3.95885 -1.69112
0.435225 -3.95713 -1.69112
0.451133 -3.95533 -1.69112
0.467021 -3.9535 -1.69112
0.48291 -3.95158 -1.69112
0.498799 -3.94961 -1.69112
0.514668 -3.94758 -1.69112
0.530537 -3.94547 -1.69112
0.546387 -3.9433 -1.69112
0.562236 -3.94109 -1.69112
0.578076 -3.93879 -1.69112
0.593906 -3.93645 -1.69112
0.609727 -3.93402 -1.69112
0.625527 -3.9315 -1.69112
0.641338 -3.92896 -1.69112
0.657129 -3.92635 -1.69112
0.6729 -3.92369 -1.69112
0.688672 -3.92096 -1.69112
0.704434 -3.91818 -1.69112
0.720166 -3.91531 -1.69112
0.735898 -3.9124 -1.69112
0.751621 -3.90937 -1.69112
0.767334 -3.90633 -1.69112
0.783018 -3.9032 -1.69112
0.798711 -3.90004 -1.69112
0.814385 -3.8968 -1.69112
0.830039 -3.8935 -1.69112
0.845684 -3.89012 -1.69112
0.861318 -3.88668 -1.69112
0.876943 -3.88316 -1.69112
0.892539 -3.87963 -1.69112
0.908135 -3.87602 -1.69112
0.923711 -3.87234 -1.69112
0.939268 -3.86859 -1.69112
0.954814 -3.86478 -1.69112
0.970342 -3.86092 -1.69112
0.98585 -3.85701 -1.69112
1.00135 -3.85301 -1.69112
1.01683 -3.84891 -1.69112
1.03229 -3.8448 -1.69112
1.04773 -3.84062 -1.69112
1.06316 -3.83641 -1.69112
1.07858 -3.83209 -1.69112
1.09396 -3.82773 -1.69112
1.10936 -3.82332 -1.69112
1.12472 -3.81879 -1.69112
1.14005 -3.81426 -1.69112
1.15538 -3.80963 -1.69112
1.17069 -3.80494 -1.69112
1.18598 -3.80021 -1.69112
1.20125 -3.79543 -1.69112
1.21649 -3.79057 -1.69112
1.23171 -3.78564 -1.69112
1.24691 -3.78068 -1.69112
1.26211 -3.77562 -1.69112
1.27728 -3.77053 -1.69112
0.251045 -0.731367 -0.328478
0.253984 -0.730352 -0.328482
0.256914 -0.729336 -0.328483
0.259844 -0.728301 -0.32848
0.262764 -0.727227 -0.328474
0.265684 -0.726152 -0.328464
0.268584 -0.725039 -0.32845
0.271484 -0.723926 -0.328433
0.274375 -0.722773 -0.328412
0.277256 -0.721621 -0.328388
0.280127 -0.72043 -0.32836
0.282998 -0.719238 -0.328328
0.285859 -0.718008 -0.328293
0.288711 -0.716777 -0.328255
0.291553 -0.715508 -0.328212
0.294385 -0.714238 -0.328166
0.297207 -0.712949 -0.328117
0.30002 -0.711621 -0.328064
0.302822 -0.710293 -0.328007
0.305615 -0.708945 -0.327947
0.308398 -0.707578 -0.327883
0.311182 -0.706172 -0.327816
0.313945 -0.704766 -0.327745
0.316709 -0.70334 -0.327671
0.319453 -0.701895 -0.327593
0.322197 -0.70043 -0.327512
0.324922 -0.698945 -0.327427
0.327646 -0.697461 -0.327338
0.330352 -0.695937 -0.327246
0.333047 -0.694395 -0.327151
0.335742 -0.692852 -0.327052
0.338418 -0.69127 -0.32695
0.341084 -0.689687 -0.326844
0.34374 -0.688086 -0.326735
0.346377 -0.686445 -0.326622
0.349014 -0.684805 -0.326506
0.351631 -0.683164 -0.326386
0.354248 -0.681484 -0.326263
0.356846 -0.679785 -0.326136
0.359424 -0.678066 -0.326006
0.362002 -0.676348 -0.325873
0.36457 -0.67459 -0.325736
0.367119 -0.672832 -0.325596
0.369658 -0.671055 -0.325453
0.372187 -0.669258 -0.325306
0.374697 -0.667441 -0.325155
0.377197 -0.665625 -0.325002
0.379687 -0.663789 -0.324845
0.425312 -0.73666 -0.361342
0.436816 -0.749609 -0.368552
0.44875 -0.763027 -0.376037
0.461162 -0.776973 -0.383812
0.474063 -0.791445 -0.391896
0.48748 -0.806465 -0.400308
0.501455 -0.82209 -0.409065
0.516016 -0.838359 -0.418191
2.10032 -3.38184 -1.69112
2.1139 -3.37338 -1.69112
2.12744 -3.36488 -1.69112
2.14096 -3.35629 -1.69112
2.15442 -3.34766 -1.69112
2.16787 -3.33895 -1.69112
2.18127 -3.33021 -1.69112
2.19463 -3.32141 -1.69112
2.20797 -3.31256 -1.69112
2.22127 -3.30365 -1.69112
2.23453 -3.29471 -1.69112
2.24777 -3.2857 -1.69112
2.26096 -3.27662 -1.69112
2.27409 -3.26754 -1.69112
2.28722 -3.25832 -1.69112
2.3003 -3.2491 -1.69112
2.31335 -3.23984 -1.69112
2.32635 -3.23055 -1.69112
2.33933 -3.22115 -1.69112
2.35225 -3.21172 -1.69112
2.36514 -3.20225 -1.69112
2.37799 -3.1927 -1.69112
2.3908 -3.18313 -1.69112
2.40358 -3.17352 -1.69112
2.41633 -3.16381 -1.69112
2.42902 -3.15404 -1.69112
2.44167 -3.14428 -1.69112
2.4543 -3.13443 -1.69112
2.46687 -3.12453 -1.69112
2.47942 -3.11459 -1.69112
2.49192 -3.10461 -1.69112
2.50438 -3.09457 -1.69112
2.51681 -3.08447 -1.69112
2.52918 -3.07434 -1.69112
2.54151 -3.06414 -1.69112
2.55382 -3.05387 -1.69112
2.56607 -3.04359 -1.69112
2.57828 -3.03326 -1.69112
2.59046 -3.02287 -1.69112
2.60259 -3.01244 -1.69112
2.61468 -3.00195 -1.69112
2.62672 -2.99141 -1.69112
2.63873 -2.98084 -1.69112
2.65069 -2.9702 -1.69112
2.66261 -2.95953 -1.69112
2.67448 -2.94879 -1.69112
2.68631 -2.93801 -1.69112
2.69811 -2.92719 -1.69112
2.70985 -2.91633 -1.69112
2.72155 -2.90541 -1.69112
2.73321 -2.89443 -1.69112
2.74482 -2.88344 -1.69112
2.7564 -2.87238 -1.69112
2.76791 -2.86131 -1.69112
2.77939 -2.85014 -1.69112
2.79084 -2.83893 -1.69112
2.80223 -2.82768 -1.69112
2.81356 -2.81639 -1.69112
2.82486 -2.80506 -1.69112
2.83611 -2.79369 -1.69112
2.84732 -2.78225 -1.69112
2.85849 -2.7708 -1.69112
2.8696 -2.75926 -1.69112
2.88066 -2.74773 -1.69112
2.89169 -2.73613 -1.69112
2.90267 -2.72447 -1.69112
2.9136 -2.71277 -1.69112
2.92448 -2.70105 -1.69112
2.93531 -2.68926 -1.69112
2.94609 -2.67744 -1.69112
2.95684 -2.66557 -1.69112
2.96753 -2.65367 -1.69112
2.97817 -2.64174 -1.69112
2.98877 -2.62973 -1.69112
2.99932 -2.61771 -1.69112
3.00981 -2.60562 -1.69112
3.02026 -2.5935 -1.69112
3.03067 -2.58135 -1.69112
3.04102 -2.56912 -1.69112
3.05132 -2.55689 -1.69112
3.06158 -2.54459 -1.69112
3.07179 -2.53227 -1.69112
3.08193 -2.51988 -1.69112
3.09205 -2.5075 -1.69112
3.10209 -2.49504 -1.69112
3.1121 -2.48254 -1.69112
3.12206 -2.47002 -1.69112
3.13196 -2.45742 -1.69112
3.14182 -2.44486 -1.69112
3.15161 -2.43219 -1.69112
3.16137 -2.41951 -1.69112
3.17107 -2.40676 -1.69112
3.18072 -2.39402 -1.69112
3.19032 -2.38119 -1.69112
3.19985 -2.36834 -1.69112
3.20936 -2.35545 -1.69112
3.2188 -2.34254 -1.69112
3.22819 -2.32959 -1.69112
3.23753 -2.3166 -1.69112
3.24682 -2.30357 -1.69112
3.25605 -2.29049 -1.69112
3.26523 -2.27736 -1.69112
3.27437 -2.26424 -1.69112
3.28344 -2.25109 -1.69112
3.29245 -2.23783 -1.69112
3.30143 -2.22461 -1.69112
3.31034 -2.21131 -1.69112
3.31921 -2.19797 -1.69112
3.32801 -2.18461 -1.69112
3.33677 -2.17121 -1.69112
3.34547 -2.15777 -1.69112
3.35411 -2.14434 -1.69112
3.36271 -2.13082 -1.69112
3.37124 -2.11727 -1.69112
3.37973 -2.10371 -1.69112
3.38815 -2.09014 -1.69112
3.39653 -2.07648 -1.69112
3.40486 -2.06281 -1.69112
3.41312 -2.0491 -1.69112
3.42133 -2.03539 -1.69112
3.42948 -2.0216 -1.69112
3.43759 -2.00781 -1.69112
3.44563 -1.99393 -1.69112
3.45361 -1.9801 -1.69112
3.46154 -1.96619 -1.69112
3.46942 -1.95225 -1.69112
3.47725 -1.9383 -1.69112
3.485 -1.92432 -1.69112
3.49271 -1.91027 -1.69112
3.50037 -1.89621 -1.69112
3.50796 -1.88213 -1.69112
3.51551 -1.86803 -1.69112
3.52298 -1.85387 -1.69112
3.5304 -1.83969 -1.69112
3.53777 -1.82549 -1.69112
3.54509 -1.81127 -1.69112
3.55232 -1.79699 -1.69112
3.55953 -1.78268 -1.69112
3.56667 -1.76836 -1.69112
3.57375 -1.75402 -1.69112
3.58078 -1.73961 -1.69112
3.58772 -1.72521 -1.69112
3.59464 -1.71078 -1.69112
3.60148 -1.69633 -1.69112
3.60827 -1.68184 -1.69112
3.615 -1.6673 -1.69112
3.62168 -1.65277 -1.69112
3.62829 -1.6382 -1.69112
3.63485 -1.62357 -1.69112
3.64135 -1.60898 -1.69112
3.64778 -1.59434 -1.69112
3.65416 -1.57965 -1.69112
3.66049 -1.56496 -1.69112
3.66676 -1.5502 -1.69112
3.67294 -1.53547 -1.69112
3.6791 -1.52068 -1.69112
3.68518 -1.5059 -1.69112
3.6912 -1.49109 -1.69112
3.69716 -1.47623 -1.69112
3.70307 -1.46135 -1.69112
3.70892 -1.44643 -1.69112
3.7147 -1.4315 -1.69112
3.72042 -1.41656 -1.69112
3.72608 -1.40158 -1.69112
3.73169 -1.3866 -1.69112
3.73725 -1.37158 -1.69112
3.74271 -1.35656 -1.69112
3.74814 -1.3415 -1.69112
3.75351 -1.32643 -1.69112
3.75881 -1.31131 -1.69112
3.76405 -1.29623 -1.69112
3.76922 -1.28107 -1.69112
3.77434 -1.26592 -1.69112
3.7794 -1.25072 -1.69112
3.7844 -1.23551 -1.69112
3.78933 -1.22029 -1.69112
3.79421 -1.20504 -1.69112
3.79903 -1.18979 -1.69112
3.80379 -1.17451 -1.69112
3.80847 -1.15922 -1.69112
3.8131 -1.14391 -1.69112
3.81766 -1.12857 -1.69112
3.82217 -1.11322 -1.69112
3.82662 -1.09781 -1.69112
3.83099 -1.08242 -1.69112
3.83531 -1.06703 -1.69112
3.83958 -1.0516 -1.69112
3.84378 -1.03615 -1.69112
3.8479 -1.02068 -1.69112
3.85197 -1.00521 -1.69112
3.856 -0.989707 -1.69112
3.85994 -0.974219 -1.69112
3.86382 -0.958691 -1.69112
3.86765 -0.943145 -1.69112
3.87141 -0.927598 -1.69112
3.87511 -0.912031 -1.69112
3.87873 -0.896445 -1.69112
3.8823 -0.880859 -1.69112
3.88582 -0.865234 -1.69112
3.88927 -0.849609 -1.69112
3.89265 -0.833945 -1.69112
3.89597 -0.81832 -1.69112
3.89923 -0.802637 -1.69112
3.90242 -0.786953 -1.69112
3.90555 -0.77125 -1.69112
3.90862 -0.755547 -1.69112
3.91163 -0.739844 -1.69112
3.91457 -0.724102 -1.69112
3.91745 -0.708379 -1.69112
3.92026 -0.692617 -1.69112
3.92302 -0.676836 -1.69112
3.92571 -0.661074 -1.69112
3.92833 -0.645293 -1.69112
3.9309 -0.629492 -1.69112
3.9334 -0.613672 -1.69112
3.93584 -0.597852 -1.69112
3.93819 -0.582051 -1.69112
3.9405 -0.566211 -1.69112
3.94275 -0.550391 -1.69112
3.94493 -0.534492 -1.69112
3.94706 -0.518652 -1.69112
3.9491 -0.502773 -1.69112
3.95109 -0.486895 -1.69112
3.95302 -0.470996 -1.69112
3.95488 -0.455098 -1.69112
3.95667 -0.439199 -1.69112
3.95841 -0.423281 -1.69112
3.96009 -0.407363 -1.69112
3.96169 -0.391465 -1.69112
3.96322 -0.375527 -1.69112
3.96471 -0.35957 -1.69112
3.96612 -0.343652 -1.69112
3.96748 -0.327676 -1.69112
3.96875 -0.311758 -1.69112
3.96997 -0.295801 -1.69112
3.97114 -0.279824 -1.69112
3.97223 -0.263848 -1.69112
3.97324 -0.247891 -1.69112
3.97422 -0.231895 -1.69112
3.97512 -0.215957 -1.69112
3.97596 -0.199961 -1.69112
3.97673 -0.183965 -1.69112
3.97743 -0.167969 -1.69112
3.97808 -0.151992 -1.69112
3.97866 -0.136016 -1.69112
3.97917 -0.11998 -1.69112
3.97963 -0.104004 -1.69112
3.98 -0.0880273 -1.69112
3.98033 -0.0720117 -1.69112
3.98059 -0.0559961 -1.69112
3.98077 -0.0400195 -1.69112
3.98091 -0.0240039 -1.69112
3.98098 -0.00798828 -1.69112
3.98096 0.00798828 -1.69112
3.9809 0.0240039 -1.69112
3.98078 0.0400195 -1.69112
3.98059 0.0559961 -1.69112
3.98033 0.0720117 -1.69112
3.98001 0.0880273 -1.69112
3.97962 0.104004 -1.69112
3.97917 0.12002 -1.69112
3.97865 0.135996 -1.69112
3.97808 0.152012 -1.69112
3.97743 0.167988 -1.69112
3.97673 0.183965 -1.69112
3.97595 0.199961 -1.69112
3.97512 0.215937 -1.69112
3.97422 0.231934 -1.69112
3.97326 0.24791 -1.69112
3.97222 0.263848 -1.69112
3.97113 0.279824 -1.69112
3.96998 0.295801 -1.69112
3.96875 0.311738 -1.69112
3.96747 0.327715 -1.69112
3.96612 0.343652 -1.69112
3.96471 0.35959 -1.69112
3.96323 0.375527 -1.69112
3.96168 0.391465 -1.69112
3.96008 0.407363 -1.69112
3.95842 0.423301 -1.69112
3.95668 0.439199 -1.69112
3.95488 0.455098 -1.69112
3.95302 0.470996 -1.69112
3.95109 0.486875 -1.69112
3.94911 0.502734 -1.69112
3.94705 0.518633 -1.69112
3.94493 0.534492 -1.69112
3.94275 0.550312 -1.69112
3.94051 0.566172 -1.69112
3.93819 0.581992 -1.69112
3.93583 0.597852 -1.69112
3.93339 0.613672 -1.69112
3.93091 0.629473 -1.69112
3.92833 0.645273 -1.69112
3.9257 0.661055 -1.69112
3.92302 0.676816 -1.69112
3.92027 0.692598 -1.69112
3.91745 0.708359 -1.69112
3.91458 0.724102 -1.69112
3.91163 0.739824 -1.69112
3.90863 0.755547 -1.69112
3.90556 0.77125 -1.69112
3.90242 0.786934 -1.69112
3.89924 0.802617 -1.69112
3.89598 0.818301 -1.69112
3.89265 0.833945 -1.69112
3.88927 0.84959 -1.69112
3.88581 0.865195 -1.69112
3.88231 0.88084 -1.69112
3.87873 0.896445 -1.69112
3.8751 0.912031 -1.69112
3.87141 0.927578 -1.69112
3.86765 0.943125 -1.69112
3.86382 0.958672 -1.69112
3.85993 0.974199 -1.69112
3.856 0.989727 -1.69112
3.85198 1.00521 -1.69112
3.84789 1.02068 -1.69112
3.84377 1.03615 -1.69112
3.83958 1.0516 -1.69112
3.83531 1.06701 -1.69112
3.831 1.08242 -1.69112
3.82661 1.09781 -1.69112
3.82218 1.11318 -1.69112
3.81767 1.12852 -1.69112
3.81311 1.14389 -1.69112
3.80847 1.1592 -1.69112
3.80377 1.17449 -1.69112
3.79902 1.18979 -1.69112
3.79422 1.20504 -1.69112
3.78934 1.22029 -1.69112
3.7844 1.23549 -1.69112
3.7794 1.2507 -1.69112
3.77435 1.2659 -1.69112
3.76922 1.28105 -1.69112
3.76404 1.29619 -1.69112
3.75881 1.31133 -1.69112
3.75351 1.32643 -1.69112
3.74813 1.3415 -1.69112
3.74271 1.35654 -1.69112
3.73724 1.37158 -1.69112
3.73169 1.38658 -1.69112
3.72609 1.4016 -1.69112
3.72043 1.41658 -1.69112
3.71469 1.4315 -1.69112
3.70892 1.44643 -1.69112
3.70307 1.46135 -1.69112
3.69716 1.47621 -1.69112
3.6912 1.49104 -1.69112
3.68518 1.50586 -1.69112
3.67909 1.52066 -1.69112
3.67295 1.53545 -1.69112
3.66675 1.5502 -1.69112
3.66049 1.56494 -1.69112
3.65416 1.57963 -1.69112
3.64779 1.5943 -1.69112
3.64135 1.60896 -1.69112
3.63485 1.62359 -1.69112
3.62829 1.63816 -1.69112
3.62169 1.65277 -1.69112
3.615 1.6673 -1.69112
3.60827 1.68182 -1.69112
3.60148 1.69631 -1.69112
3.59464 1.71078 -1.69112
3.58773 1.72521 -1.69112
3.58076 1.73965 -1.69112
3.57374 1.75402 -1.69112
3.56667 1.76834 -1.69112
3.55953 1.78268 -1.69112
3.55232 1.79697 -1.69112
3.54508 1.81123 -1.69112
3.53777 1.82547 -1.69112
3.53041 1.83967 -1.69112
3.52297 1.85385 -1.69112
3.5155 1.86801 -1.69112
3.50796 1.88211 -1.69112
3.50036 1.89621 -1.69112
3.49271 1.91025 -1.69112
3.485 1.9243 -1.69112
3.47724 1.93826 -1.69112
3.46942 1.95225 -1.69112
3.46154 1.96617 -1.69112
3.45362 1.9801 -1.69112
3.44562 1.99393 -1.69112
3.43759 2.00777 -1.69112
3.42948 2.02158 -1.69112
3.42134 2.03535 -1.69112
3.41312 2.0491 -1.69112
3.40485 2.06279 -1.69112
3.39653 2.07645 -1.69112
3.38816 2.0901 -1.69112
3.37974 2.10371 -1.69112
3.37124 2.11727 -1.69112
3.3627 2.1308 -1.69112
3.35411 2.14432 -1.69112
3.34547 2.15779 -1.69112
3.33677 2.17121 -1.69112
3.32801 2.18461 -1.69112
3.3192 2.19797 -1.69112
3.31034 2.21127 -1.69112
3.30143 2.22455 -1.69112
3.29246 2.23783 -1.69112
3.28343 2.25104 -1.69112
3.27436 2.26422 -1.69112
3.26523 2.27736 -1.69112
3.25604 2.29049 -1.69112
3.24681 2.30355 -1.69112
3.23752 2.31658 -1.69112
3.22818 2.32959 -1.69112
3.2188 2.34256 -1.69112
3.20936 2.35545 -1.69112
3.19986 2.36834 -1.69112
3.19031 2.38119 -1.69112
3.18072 2.39398 -1.69112
3.17107 2.40676 -1.69112
3.16137 2.41949 -1.69112
3.15161 2.43217 -1.69112
3.14181 2.44482 -1.69112
3.13195 2.45742 -1.69112
3.12205 2.47 -1.69112
3.11211 2.48254 -1.69112
3.10209 2.49502 -1.69112
3.09204 2.50748 -1.69112
3.08193 2.51988 -1.69112
3.07179 2.53227 -1.69112
3.06158 2.54461 -1.69112
3.05133 2.55686 -1.69112
3.04102 2.56912 -1.69112
3.03066 2.58131 -1.69112
3.02026 2.59348 -1.69112
3.00982 2.60561 -1.69112
2.99932 2.61768 -1.69112
2.98876 2.62975 -1.69112
2.97817 2.64172 -1.69112
2.96753 2.65365 -1.69112
0.509658 0.459453 -0.29149
0.505391 0.459297 -0.290102
0.501133 0.459121 -0.28872
0.496904 0.458945 -0.287344
0.492695 0.45875 -0.285974
0.488506 0.458496 -0.284609
0.484336 0.458262 -0.28325
0.480186 0.458008 -0.281897
0.476055 0.457734 -0.28055
0.471943 0.457441 -0.279208
0.467852 0.457148 -0.277873
0.463779 0.456836 -0.276543
0.459727 0.456484 -0.27522
0.455693 0.456152 -0.273902
0.451689 0.455781 -0.272591
0.447695 0.45541 -0.271285
0.44373 0.455 -0.269986
0.439775 0.454609 -0.268693
0.43585 0.45418 -0.267406
0.431943 0.45375 -0.266125
0.428057 0.453301 -0.264851
0.424189 0.452832 -0.263583
0.420342 0.452363 -0.262321
0.416562 0.451934 -0.261097
0.41333 0.452051 -0.260204
0.410098 0.452148 -0.259314
0.406885 0.452246 -0.258426
0.403672 0.452324 -0.25754
0.400469 0.452383 -0.256656
0.397275 0.452441 -0.255774
0.394102 0.452461 -0.254895
0.390928 0.45248 -0.254018
0.387764 0.4525 -0.253143
0.384609 0.45248 -0.252271
0.382227 0.453359 -0.251901
0.380273 0.454746 -0.251818
0.37832 0.456113 -0.251734
0.376357 0.45748 -0.25165
0.374385 0.458828 -0.251564
0.372412 0.460176 -0.251478
0.37043 0.461504 -0.251391
0.368447 0.462832 -0.251303
0.366455 0.464141 -0.251214
0.364453 0.465449 -0.251124
0.362451 0.466719 -0.251034
0.360439 0.468008 -0.250943
0.358428 0.469277 -0.250852
0.356406 0.470547 -0.250759
0.354375 0.471797 -0.250666
0.352344 0.473047 -0.250572
0.350313 0.474277 -0.250477
0.348271 0.475508 -0.250381
0.346221 0.476719 -0.250285
0.34417 0.47791 -0.250188
0.342109 0.479102 -0.25009
0.340049 0.480293 -0.249992
0.337979 0.481465 -0.249893
0.336025 0.482793 -0.24988
0.334072 0.484141 -0.249875
0.332119 0.485469 -0.24987
0.330156 0.486777 -0.249863
0.328193 0.488086 -0.249857
0.326211 0.489395 -0.249849
0.324238 0.490684 -0.249841
0.322246 0.491973 -0.249831
0.320254 0.493242 -0.249821
0.318252 0.494492 -0.249811
0.31625 0.495762 -0.249799
0.314238 0.496992 -0.249787
0.312227 0.498223 -0.249775
0.310205 0.499453 -0.249761
0.308174 0.500664 -0.249747
0.306143 0.501875 -0.249732
0.304102 0.503066 -0.249716
0.302061 0.504258 -0.249699
0.30001 0.50543 -0.249682
0.297949 0.506602 -0.249664
0.295879 0.507754 -0.249645
0.293818 0.508906 -0.249626
0.291738 0.510039 -0.249606
0.289668 0.511152 -0.249585
0.287588 0.512266 -0.249563
0.285498 0.513379 -0.249541
0.283408 0.514473 -0.249518
0.281309 0.515566 -0.249494
0.279209 0.516641 -0.249469
0.2771 0.517715 -0.249444
0.27499 0.51877 -0.249418
0.272871 0.519805 -0.249391
0.270752 0.52084 -0.249363
0.268623 0.521875 -0.249335
0.266494 0.522891 -0.249306
0.264355 0.523887 -0.249276
0.262217 0.524883 -0.249246
0.260068 0.525859 -0.249215
0.25792 0.526836 -0.249183
0.255771 0.527812 -0.249151
0.253613 0.52875 -0.249117
0.251445 0.529707 -0.249083
0.249287 0.530645 -0.249049
0.247109 0.531563 -0.249013
0.244941 0.532461 -0.248977
0.242764 0.533379 -0.24894
0.240576 0.534258 -0.248903
0.238389 0.535137 -0.248864
0.236201 0.536016 -0.248825
0.234004 0.536855 -0.248786
0.231807 0.537695 -0.248745
0.229609 0.538535 -0.248704
0.227402 0.539375 -0.248662
0.225195 0.540195 -0.24862
0.222988 0.540996 -0.248577
0.220771 0.541797 -0.248533
0.218545 0.542578 -0.248488
0.216328 0.543359 -0.248443
0.214102 0.544121 -0.248397
0.211875 0.544863 -0.24835
0.209639 0.545625 -0.248303
0.207402 0.546348 -0.248255
0.205166 0.54707 -0.248206
0.20293 0.547773 -0.248156
0.200684 0.548477 -0.248106
0.198437 0.54918 -0.248055
0.196182 0.549844 -0.248004
0.193936 0.550527 -0.247952
0.19168 0.551172 -0.247899
0.189414 0.551816 -0.247845
0.187158 0.552461 -0.247791
0.184951 0.553262 -0.247818
0.182754 0.554082 -0.247852
0.180547 0.554902 -0.247886
0.17834 0.555684 -0.247919
0.176133 0.556484 -0.247952
0.173916 0.557246 -0.247984
0.171699 0.558008 -0.248015
0.169473 0.55877 -0.248046
0.167246 0.559512 -0.248077
0.16501 0.560254 -0.248106
0.162783 0.560977 -0.248136
0.160547 0.561699 -0.248164
0.158301 0.562402 -0.248192
0.156055 0.563086 -0.248219
0.153809 0.56377 -0.248247
0.151553 0.564453 -0.248273
0.149307 0.565117 -0.248298
0.147041 0.565762 -0.248324
0.144785 0.566406 -0.248348
0.14252 0.567051 -0.248372
0.140254 0.567656 -0.248395
0.137979 0.568281 -0.248418
0.135703 0.568867 -0.24844
0.133428 0.569473 -0.248462
0.131152 0.570039 -0.248483
0.128867 0.570625 -0.248503
0.126572 0.571172 -0.248522
0.124287 0.571719 -0.248542
0.122002 0.572266 -0.24856
0.119707 0.572793 -0.248578
0.117412 0.573301 -0.248595
0.115117 0.573809 -0.248612
0.112812 0.574316 -0.248629
0.110508 0.574785 -0.248644
0.108203 0.575273 -0.248659
0.105898 0.575703 -0.248673
0.103584 0.576172 -0.248687
0.101279 0.576602 -0.2487
0.0989648 0.577031 -0.248713
0.0966504 0.577461 -0.248725
0.0943262 0.577871 -0.248736
0.0920117 0.578281 -0.248747
0.0896875 0.578652 -0.248757
0.0873633 0.579043 -0.248766
0.0850391 0.579414 -0.248775
0.0827148 0.579766 -0.248784
0.0803809 0.580117 -0.248792
0.0780566 0.580449 -0.248799
0.0757227 0.580762 -0.248805
0.0733887 0.581094 -0.248811
0.0710547 0.581387 -0.248817
0.0687109 0.58168 -0.248821
0.066377 0.581953 -0.248825
0.0640332 0.582227 -0.248829
0.0616992 0.5825 -0.248832
0.0593555 0.582734 -0.248834
0.0570117 0.582988 -0.248836
0.054668 0.583203 -0.248837
0.0523242 0.583418 -0.248837
0.0499805 0.583633 -0.248837
0.0476367 0.583828 -0.248836
0.0452832 0.584004 -0.248835
0.0429395 0.58418 -0.248833
0.0405859 0.584336 -0.248831
0.0382422 0.584492 -0.248827
0.0358887 0.584629 -0.248824
0.0335352 0.584766 -0.248819
0.0311816 0.584883 -0.248814
0.0288281 0.585 -0.248809
0.0264844 0.585098 -0.248802
0.0241309 0.585176 -0.248796
0.0217773 0.585254 -0.248788
0.0194238 0.585312 -0.24878
0.0170703 0.585371 -0.248772
0.0147168 0.58541 -0.248763
0.0123633 0.585449 -0.248753
0.01 0.585469 -0.248745
0.00764648 0.585488 -0.24874
0.00529297 0.585508 -0.248735
0.00293945 0.585508 -0.248729
0.000585937 0.585508 -0.248722
-0.00176758 0.585508 -0.248726
-0.00412109 0.585508 -0.248732
-0.00647461 0.585508 -0.248738
-0.00882812 0.585488 -0.248743
-0.0111816 0.585449 -0.248748
-0.0135352 0.58543 -0.248758
-0.0158887 0.585391 -0.248767
-0.0182422 0.585352 -0.248776
-0.0205957 0.585293 -0.248784
-0.0229492 0.585195 -0.248792
-0.0253027 0.585117 -0.248799
-0.0276562 0.585039 -0.248806
-0.0300098 0.584922 -0.248811
-0.0323535 0.584824 -0.248817
-0.034707 0.584687 -0.248822
-0.0370605 0.584551 -0.248826
-0.0394141 0.584414 -0.248829
-0.0417578 0.584258 -0.248832
-0.0441113 0.584082 -0.248834
-0.0464551 0.583906 -0.248836
-0.0488086 0.58373 -0.248837
-0.0511523 0.583516 -0.248837
-0.0534961 0.58332 -0.248837
-0.0558398 0.583086 -0.248836
-0.0581836 0.582852 -0.248835
-0.0605273 0.582617 -0.248833
-0.0628711 0.582363 -0.24883
-0.0652051 0.58209 -0.248827
-0.0675488 0.581816 -0.248823
-0.0698828 0.581543 -0.248819
-0.0722168 0.58123 -0.248814
-0.0745508 0.580938 -0.248808
-0.0768848 0.580605 -0.248802
-0.0792187 0.580293 -0.248795
-0.081543 0.579941 -0.248788
-0.083877 0.57959 -0.24878
-0.0862012 0.579238 -0.248771
-0.0885254 0.578867 -0.248762
-0.0908496 0.578477 -0.248752
-0.0931641 0.578086 -0.248742
-0.0954883 0.577676 -0.24873
-0.0978027 0.577266 -0.248719
-0.100117 0.576836 -0.248707
-0.102432 0.576406 -0.248694
-0.104746 0.575957 -0.24868
-0.107051 0.575488 -0.248666
-0.109355 0.57502 -0.248651
-0.11166 0.574551 -0.248636
-0.113965 0.574062 -0.24862
-0.11626 0.573555 -0.248604
-0.118555 0.573047 -0.248587
-0.12085 0.57252 -0.248569
-0.123145 0.571992 -0.248551
-0.12543 0.571445 -0.248532
-0.127715 0.570898 -0.248513
-0.12999 0.570332 -0.248493
-0.132275 0.569766 -0.248472
-0.134551 0.56918 -0.248451
-0.136826 0.568574 -0.248429
-0.139102 0.567969 -0.248407
-0.141367 0.567363 -0.248384
-0.143633 0.566738 -0.24836
-0.145898 0.566094 -0.248336
-0.148154 0.565449 -0.248311
-0.15041 0.564766 -0.248286
-0.152666 0.564102 -0.24826
-0.154922 0.563418 -0.248233
-0.157168 0.562734 -0.248206
-0.159404 0.562031 -0.248178
-0.16165 0.561328 -0.24815
-0.163887 0.560605 -0.248121
-0.166113 0.559883 -0.248092
-0.16835 0.559141 -0.248062
-0.170566 0.558398 -0.248031
-0.172793 0.557637 -0.248
-0.17501 0.556855 -0.247968
-0.177227 0.556074 -0.247935
-0.179434 0.555293 -0.247903
-0.181641 0.554492 -0.247869
-0.183848 0.553672 -0.247835
-0.186045 0.552852 -0.2478
-0.188281 0.552148 -0.247818
-0.190537 0.551504 -0.247872
-0.192793 0.550859 -0.247925
-0.195049 0.550195 -0.247978
-0.197295 0.549512 -0.248029
-0.199551 0.548828 -0.248081
-0.201797 0.548145 -0.248131
-0.204033 0.547422 -0.248181
-0.206279 0.546719 -0.24823
-0.208516 0.545996 -0.248279
-0.210752 0.545254 -0.248326
-0.212979 0.544512 -0.248373
-0.215205 0.54375 -0.24842
-0.217432 0.542969 -0.248465
-0.219648 0.542188 -0.24851
-0.221865 0.541406 -0.248555
-0.224082 0.540605 -0.248598
-0.226289 0.539785 -0.248641
-0.228496 0.538965 -0.248683
-0.230703 0.538145 -0.248725
-0.2329 0.537285 -0.248765
-0.235098 0.536445 -0.248805
-0.237295 0.535566 -0.248845
-0.239482 0.534707 -0.248883
-0.24166 0.533809 -0.248921
-0.243848 0.53291 -0.248959
-0.246025 0.532012 -0.248995
-0.248193 0.531094 -0.249031
-0.250361 0.530176 -0.249066
-0.252529 0.529238 -0.2491
-0.254687 0.528281 -0.249134
-0.256846 0.527324 -0.249167
-0.258994 0.526348 -0.249199
-0.261143 0.525371 -0.249231
-0.263281 0.524395 -0.249261
-0.26542 0.523398 -0.249292
-0.267549 0.522383 -0.249321
-0.269678 0.521367 -0.249349
-0.271807 0.520332 -0.249377
-0.273926 0.519297 -0.249404
-0.276045 0.518242 -0.249431
-0.278154 0.517187 -0.249456
-0.280254 0.516094 -0.249481
-0.282354 0.515 -0.249506
-0.284453 0.513926 -0.249529
-0.286543 0.512812 -0.249552
-0.288623 0.511699 -0.249574
-0.290703 0.510586 -0.249595
-0.292783 0.509453 -0.249616
-0.294854 0.50832 -0.249636
-0.296914 0.507168 -0.249655
-0.298965 0.506016 -0.249673
-0.301016 0.504844 -0.249691
-0.303066 0.503652 -0.249708
-0.305107 0.502461 -0.249724
-0.307139 0.50127 -0.249739
-0.30917 0.500059 -0.249754
-0.311201 0.498848 -0.249768
-0.313223 0.497617 -0.249781
-0.315234 0.496367 -0.249794
-0.317236 0.495117 -0.249805
-0.319238 0.493867 -0.249816
-0.32124 0.492598 -0.249827
-0.323232 0.491328 -0.249836
-0.325215 0.490039 -0.249845
-0.327187 0.48875 -0.249853
-0.32916 0.487441 -0.24986
-0.331123 0.486133 -0.249866
-0.333086 0.484805 -0.249872
-0.335039 0.483477 -0.249877
-0.336982 0.482129 -0.249882
-0.339004 0.480879 -0.249942
-0.341074 0.479707 -0.250041
-0.343135 0.478516 -0.250139
-0.345186 0.477324 -0.250237
-0.347236 0.476113 -0.250333
-0.349277 0.474902 -0.250429
-0.351318 0.473672 -0.250524
-0.353359 0.472441 -0.250619
-0.355381 0.471191 -0.250712
-0.357412 0.469922 -0.250805
-0.359424 0.468652 -0.250897
-0.361436 0.467383 -0.250989
-0.363447 0.466094 -0.251079
-0.365449 0.464785 -0.251169
-0.367441 0.463477 -0.251258
-0.369434 0.462168 -0.251346
-0.371416 0.46084 -0.251434
-0.373398 0.459492 -0.251521
-0.375371 0.458145 -0.251607
-0.377334 0.456797 -0.251692
-0.379297 0.45543 -0.251776
-0.38125 0.454043 -0.25186
-0.383203 0.452656 -0.251942
-0.386182 0.45248 -0.252706
-0.389336 0.45248 -0.253579
-0.39251 0.45248 -0.254455
-0.395684 0.452461 -0.255333
-0.398867 0.452422 -0.256213
-0.40207 0.452363 -0.257096
-0.405273 0.452285 -0.257981
-0.408486 0.452187 -0.258868
-0.411709 0.45209 -0.259758
-0.414941 0.451973 -0.260649
-0.418418 0.452109 -0.26169
-0.422256 0.452598 -0.262949
-0.426113 0.453066 -0.264214
-0.42999 0.453516 -0.265486
-0.433887 0.453965 -0.266763
-0.437803 0.454395 -0.268047
-0.441748 0.454805 -0.269337
-0.445703 0.455195 -0.270633
-0.449687 0.455586 -0.271935
-0.453682 0.455957 -0.273243
-0.457705 0.456328 -0.274558
-0.461748 0.45666 -0.275879
-0.465811 0.456992 -0.277205
-0.469893 0.457305 -0.278538
-0.473994 0.457598 -0.279876
-0.478115 0.457871 -0.281221
-0.482256 0.458145 -0.282571
-0.486416 0.458398 -0.283927
-0.490596 0.458613 -0.285288
-0.494795 0.458828 -0.286656
-0.499014 0.459023 -0.288029
-0.503252 0.459219 -0.289409
-0.50751 0.459375 -0.290793
-2.78161 2.49748 -1.58803
-2.79162 2.48633 -1.58803
-2.8016 2.47504 -1.58803
-2.81152 2.46379 -1.58803
-2.8214 2.45246 -1.58803
-2.83124 2.44109 -1.58803
-2.84104 2.42969 -1.58803
-2.85077 2.41822 -1.58803
-2.86048 2.40676 -1.58803
-2.87013 2.39523 -1.58803
-2.87974 2.38367 -1.58803
-2.88931 2.37205 -1.58803
-2.8988 2.36045 -1.58803
-2.90826 2.34877 -1.58803
-2.91769 2.33707 -1.58803
-2.92707 2.32533 -1.58803
-2.93639 2.31354 -1.58803
-2.94567 2.3017 -1.58803
-2.95489 2.28986 -1.58803
-2.96407 2.27795 -1.58803
-2.97321 2.26602 -1.58803
-2.98229 2.25406 -1.58803
-2.99134 2.24205 -1.58803
-3.00031 2.23 -1.58803
-3.00926 2.21793 -1.58803
-3.01814 2.2058 -1.58803
-3.02699 2.19365 -1.58803
-3.03579 2.18146 -1.58803
-3.04453 2.16926 -1.58803
-3.05322 2.15699 -1.58803
-3.06187 2.14471 -1.58803
-3.07047 2.13238 -1.58803
-3.07901 2.12004 -1.58803
-3.08751 2.10766 -1.58803
-3.09596 2.0952 -1.58803
-3.10436 2.08273 -1.58803
-3.1127 2.07021 -1.58803
-3.12101 2.05771 -1.58803
-3.12926 2.04514 -1.58803
-3.13744 2.03256 -1.58803
-3.1456 2.01992 -1.58803
-3.15369 2.00725 -1.58803
-3.16173 1.99457 -1.58803
-3.16973 1.98184 -1.58803
-3.17766 1.96908 -1.58803
-3.18555 1.95629 -1.58803
-3.19339 1.94346 -1.58803
-3.20118 1.93062 -1.58803
-3.20892 1.91773 -1.58803
-3.21659 1.90482 -1.58803
-3.22423 1.89189 -1.58803
-3.23181 1.87889 -1.58803
-3.23934 1.86588 -1.58803
-3.24682 1.85285 -1.58803
-3.25423 1.83977 -1.58803
-3.2616 1.82668 -1.58803
-3.26893 1.81355 -1.58803
-3.27618 1.80041 -1.58803
-3.28339 1.78723 -1.58803
-3.29055 1.774 -1.58803
-3.29765 1.76078 -1.58803
-3.30472 1.7475 -1.58803
-3.31171 1.73422 -1.58803
-3.31864 1.72088 -1.58803
-3.32554 1.70752 -1.58803
-3.33238 1.69414 -1.58803
-3.33916 1.68074 -1.58803
-3.34589 1.66729 -1.58803
-3.35256 1.65383 -1.58803
-3.35919 1.64029 -1.58803
-3.36576 1.62678 -1.58803
-3.37227 1.61326 -1.58803
-3.37873 1.59971 -1.58803
-3.38512 1.58611 -1.58803
-3.39147 1.57248 -1.58803
-3.39777 1.55883 -1.58803
-3.40401 1.54514 -1.58803
-3.41019 1.53146 -1.58803
-3.41632 1.51773 -1.58803
-3.4224 1.504 -1.58803
-3.42842 1.49023 -1.58803
-3.43438 1.47643 -1.58803
-3.44027 1.46264 -1.58803
-3.44613 1.44881 -1.58803
-3.45193 1.43492 -1.58803
-3.45768 1.42104 -1.58803
-3.46337 1.40713 -1.58803
-3.46898 1.39318 -1.58803
-3.47455 1.37924 -1.58803
-3.48008 1.36525 -1.58803
-3.48554 1.35123 -1.58803
-3.49094 1.33723 -1.58803
-3.49629 1.32316 -1.58803
-3.50157 1.3091 -1.58803
-3.50682 1.29502 -1.58803
-3.51199 1.2809 -1.58803
-3.51711 1.26678 -1.58803
-3.52217 1.25264 -1.58803
-3.52718 1.23848 -1.58803
-3.53214 1.22428 -1.58803
-3.53702 1.21006 -1.58803
-3.54186 1.19586 -1.58803
-3.54664 1.1816 -1.58803
-3.55137 1.16732 -1.58803
-3.55604 1.15305 -1.58803
-3.56062 1.13875 -1.58803
-3.56519 1.12443 -1.58803
-3.56968 1.11008 -1.58803
-3.57411 1.09572 -1.58803
-3.57848 1.08137 -1.58803
-3.58279 1.06695 -1.58803
-3.58706 1.05254 -1.58803
-3.59127 1.03812 -1.58803
-3.59541 1.02367 -1.58803
-3.59948 1.00922 -1.58803
-3.60352 0.994746 -1.58803
-3.60749 0.980234 -1.58803
-3.6114 0.965742 -1.58803
-3.61525 0.951191 -1.58803
-3.61904 0.93666 -1.58803
-3.62278 0.92209 -1.58803
-3.62646 0.90752 -1.58803
-3.63008 0.89293 -1.58803
-3.63364 0.87834 -1.58803
-3.63714 0.863711 -1.58803
-3.6406 0.849082 -1.58803
-3.64397 0.834453 -1.58803
-3.64728 0.819805 -1.58803
-3.65056 0.805137 -1.58803
-3.65377 0.790449 -1.58803
-3.65691 0.775762 -1.58803
-3.66 0.761035 -1.58803
-3.66303 0.746348 -1.58803
-3.66601 0.731602 -1.58803
-3.66892 0.716855 -1.58803
-3.67178 0.70209 -1.58803
-3.67455 0.687324 -1.58803
-3.67729 0.672559 -1.58803
-3.67997 0.657773 -1.58803
-3.68258 0.642988 -1.58803
-3.68513 0.628164 -1.58803
-3.68763 0.61334 -1.58803
-3.69007 0.598535 -1.58803
-3.69245 0.583691 -1.58803
-3.69476 0.568809 -1.58803
-3.69701 0.553984 -1.58803
-3.69922 0.539121 -1.58803
-3.70136 0.524238 -1.58803
-3.70344 0.509336 -1.58803
-3.70545 0.494434 -1.58803
-3.70741 0.479551 -1.58803
-3.70931 0.464648 -1.58803
-3.71114 0.449746 -1.58803
-3.71291 0.434824 -1.58803
-3.71464 0.419883 -1.58803
-3.7163 0.404941 -1.58803
-3.7179 0.39 -1.58803
-3.71942 0.375059 -1.58803
-3.72091 0.360098 -1.58803
-3.72232 0.345156 -1.58803
-3.72368 0.330176 -1.58803
-3.72499 0.315195 -1.58803
-3.72621 0.300215 -1.58803
-3.72739 0.285254 -1.58803
-3.72852 0.270273 -1.58803
-3.72957 0.255273 -1.58803
-3.73056 0.240293 -1.58803
-3.73149 0.225293 -1.58803
-3.73237 0.210273 -1.58803
-3.73319 0.195293 -1.58803
-3.73395 0.180293 -1.58803
-3.73464 0.165254 -1.58803
-3.73527 0.150234 -1.58803
-3.73585 0.135215 -1.58803
-3.73636 0.120215 -1.58803
-3.73681 0.105176 -1.58803
-3.73721 0.0901562 -1.58803
-3.73754 0.0751367 -1.58803
-3.73782 0.0601367 -1.58803
-3.73803 0.0450977 -1.58803
-3.73817 0.0300586 -1.58803
-3.73826 0.0150195 -1.58803
-3.6261 -1.95312e-05 -1.58803
-3.62606 -0.0145898 -1.58803
-3.62599 -0.0291797 -1.58803
-3.62583 -0.0437695 -1.58803
-3.62563 -0.0583008 -1.58803
