ply
format ascii 1.0
comment Created by Open3D
element vertex 1685
property float x
property float y
property float z
end_header
0.282863 0.773127 -0.297058
0.280792 0.777134 -0.298161
0.278685 0.781116 -0.299256
0.276545 0.785073 -0.300344
0.27437 0.789009 -0.301424
0.272161 0.792913 -0.302496
0.269917 0.796792 -0.30356
0.267638 0.800645 -0.304615
0.265325 0.804465 -0.305661
0.262978 0.808259 -0.306697
0.260596 0.812019 -0.307724
0.258181 0.815747 -0.308741
0.255731 0.819443 -0.309748
0.253247 0.823103 -0.310745
0.25073 0.826731 -0.311731
0.248178 0.830322 -0.312706
0.245592 0.833874 -0.31367
0.242974 0.83739 -0.314622
0.240322 0.840867 -0.315563
0.237637 0.844304 -0.316492
0.23492 0.847698 -0.317408
0.232169 0.85105 -0.318311
0.229386 0.854363 -0.319202
0.226571 0.857627 -0.32008
0.223723 0.86085 -0.320944
0.220845 0.864023 -0.321794
0.217934 0.867156 -0.32263
0.214993 0.870234 -0.323452
0.212021 0.873267 -0.32426
0.209019 0.87625 -0.325053
0.205986 0.879182 -0.32583
0.202925 0.882061 -0.326593
0.199833 0.884888 -0.32734
0.196712 0.887664 -0.328071
0.193605 0.890574 -0.328856
0.190482 0.893499 -0.329651
0.18733 0.896367 -0.33043
0.18415 0.899187 -0.331193
0.180941 0.901951 -0.331941
0.177705 0.904661 -0.332672
0.174441 0.907317 -0.333387
0.17115 0.909912 -0.334086
0.167832 0.912451 -0.334768
0.164489 0.914932 -0.335433
0.161121 0.917354 -0.33608
0.157726 0.919714 -0.336711
0.154308 0.922017 -0.337323
0.150866 0.924253 -0.337918
0.1474 0.926431 -0.338493
0.143912 0.928542 -0.339052
0.140401 0.930593 -0.339591
0.136868 0.932578 -0.340112
0.133315 0.934497 -0.340614
0.129741 0.936352 -0.341097
0.126147 0.93814 -0.341561
0.122534 0.939861 -0.342005
0.118902 0.941509 -0.342429
0.115252 0.943096 -0.342834
0.111585 0.944609 -0.343219
0.107902 0.946055 -0.343583
0.104202 0.947432 -0.343928
0.100487 0.948735 -0.344252
0.096758 0.949971 -0.344556
0.0930141 0.95113 -0.344839
0.089258 0.952222 -0.345102
0.0854898 0.953242 -0.345344
0.0817088 0.954187 -0.345564
0.0779179 0.955061 -0.345764
0.0741162 0.955859 -0.345943
0.0703049 0.956587 -0.346102
0.0664853 0.957241 -0.346238
0.0626579 0.957817 -0.346354
0.0588226 0.958325 -0.346448
0.0549815 0.958752 -0.346521
0.0511345 0.959111 -0.346573
0.0472827 0.959392 -0.346603
0.043427 0.9596 -0.346612
0.0395676 0.959734 -0.3466
0.0357054 0.95979 -0.346566
0.0318419 0.959775 -0.346511
0.0279776 0.959683 -0.346435
0.0241121 0.959517 -0.346337
0.0202481 0.959277 -0.346218
0.0163849 0.958962 -0.346078
0.0125238 0.958574 -0.345917
0.00866592 0.958113 -0.345735
0.00481247 0.957734 -0.345589
0.000962067 0.957644 -0.345552
-0.00288727 0.957695 -0.345573
-0.00673859 0.957854 -0.345636
-0.0105951 0.958354 -0.345829
-0.0144548 0.958777 -0.346001
-0.0183167 0.959128 -0.346151
-0.0221809 0.959407 -0.34628
-0.0260452 0.959609 -0.346389
-0.02991 0.959736 -0.346475
-0.0337744 0.95979 -0.346541
-0.0376372 0.959771 -0.346585
-0.0414978 0.959678 -0.346609
-0.0453557 0.959504 -0.34661
-0.0492097 0.95926 -0.34659
-0.0530589 0.95894 -0.346549
-0.0569035 0.958547 -0.346487
-0.0607414 0.958081 -0.346403
-0.0645726 0.957537 -0.346299
-0.0683968 0.956921 -0.346172
-0.0722122 0.956233 -0.346025
-0.0760185 0.955469 -0.345856
-0.0798154 0.954631 -0.345667
-0.0836009 0.953723 -0.345457
-0.0873755 0.952739 -0.345225
-0.0911385 0.951685 -0.344973
-0.0948885 0.950559 -0.3447
-0.0986244 0.949363 -0.344406
-0.102347 0.948091 -0.344092
-0.106054 0.94675 -0.343758
-0.109746 0.945339 -0.343403
-0.113421 0.94386 -0.343029
-0.11708 0.94231 -0.342634
-0.12072 0.940693 -0.342219
-0.124343 0.939009 -0.341785
-0.127947 0.937253 -0.341331
-0.131531 0.935435 -0.340858
-0.135095 0.933545 -0.340365
-0.138638 0.931594 -0.339854
-0.14216 0.929575 -0.339324
-0.14566 0.927495 -0.338775
-0.149137 0.925352 -0.338208
-0.15259 0.923142 -0.337623
-0.156021 0.920872 -0.337019
-0.159427 0.91854 -0.336397
-0.162808 0.91615 -0.335759
-0.166165 0.913696 -0.335102
-0.169495 0.911189 -0.334429
-0.172799 0.908618 -0.333739
-0.176077 0.905996 -0.333032
-0.179327 0.903313 -0.332308
-0.182549 0.900576 -0.331569
-0.185744 0.897783 -0.330813
-0.18891 0.894941 -0.330042
-0.192047 0.892041 -0.329256
-0.195156 0.889094 -0.328454
-0.198276 0.886282 -0.327707
-0.201382 0.883484 -0.326968
-0.204459 0.880627 -0.326214
-0.207507 0.877722 -0.325444
-0.210524 0.874763 -0.324658
-0.213511 0.871758 -0.323858
-0.216468 0.868701 -0.323043
-0.219393 0.865596 -0.322214
-0.222289 0.862441 -0.32137
-0.225151 0.859243 -0.320513
-0.227982 0.856001 -0.319642
-0.230782 0.85271 -0.318758
-0.233548 0.84938 -0.317861
-0.236283 0.846006 -0.316951
-0.238984 0.84259 -0.316029
-0.241652 0.839133 -0.315094
-0.244288 0.83564 -0.314148
-0.24689 0.832102 -0.31319
-0.249458 0.82853 -0.31222
-0.251992 0.824922 -0.311239
-0.254493 0.821277 -0.310248
-0.25696 0.8176 -0.309246
-0.259393 0.813887 -0.308234
-0.261792 0.810142 -0.307212
-0.264156 0.806367 -0.30618
-0.266486 0.802559 -0.305139
-0.268782 0.798721 -0.304088
-0.271043 0.794858 -0.303029
-0.27327 0.790964 -0.301961
-0.275462 0.787043 -0.300885
-0.27762 0.783101 -0.299801
-0.279743 0.779128 -0.298709
-0.281832 0.775134 -0.29761
-0.283886 0.771118 -0.296503
-0.285906 0.767078 -0.29539
-0.288548 0.764756 -0.29494
-0.29137 0.762937 -0.294688
-0.294169 0.761074 -0.294423
-0.296947 0.759172 -0.294146
-0.299702 0.757227 -0.293857
-0.302435 0.755247 -0.293557
-0.305144 0.753223 -0.293246
-0.30783 0.751162 -0.292922
-0.310492 0.74906 -0.292588
-0.31313 0.746921 -0.292242
-0.315743 0.744746 -0.291885
-0.318333 0.742532 -0.291516
-0.320897 0.740283 -0.291137
-0.323436 0.737996 -0.290747
-0.325949 0.735671 -0.290346
-0.328438 0.733315 -0.289933
-0.3309 0.730923 -0.289511
-0.333336 0.728496 -0.289078
-0.335747 0.726033 -0.288634
-0.33813 0.723538 -0.288181
-0.340486 0.721011 -0.287717
-0.342816 0.71845 -0.287242
-0.345119 0.715857 -0.286758
-0.347394 0.713235 -0.286264
-0.349642 0.710579 -0.28576
-0.351862 0.707891 -0.285247
-0.354055 0.705178 -0.284724
-0.35622 0.702432 -0.284192
-0.358356 0.699658 -0.28365
-0.360465 0.696858 -0.283099
-0.362545 0.694028 -0.28254
-0.364597 0.691169 -0.281971
-0.36662 0.688289 -0.281394
-0.368615 0.685378 -0.280808
-0.370581 0.682441 -0.280213
-0.372518 0.679485 -0.27961
-0.374427 0.676497 -0.278999
-0.376306 0.673489 -0.27838
-0.378157 0.670459 -0.277753
-0.379978 0.667402 -0.277118
-0.381771 0.664326 -0.276476
-0.383534 0.661226 -0.275826
-0.385269 0.658108 -0.275168
-0.386974 0.654968 -0.274503
-0.38865 0.651807 -0.273831
-0.390297 0.648628 -0.273152
-0.391915 0.64543 -0.272467
-0.480407 0.784041 -0.331794
-0.484758 0.784048 -0.332619
-0.489101 0.784009 -0.333434
-0.493434 0.783921 -0.334237
-0.497758 0.783782 -0.335029
-0.502071 0.783596 -0.33581
-0.506373 0.783362 -0.336578
-0.510664 0.783074 -0.337335
-0.514942 0.782739 -0.338079
-0.519205 0.782354 -0.338811
-0.523456 0.781916 -0.33953
-0.52769 0.781428 -0.340237
-0.53191 0.780891 -0.340931
-0.536113 0.7803 -0.341611
0.528632 0.669563 -0.318553
0.525358 0.670945 -0.318204
0.522062 0.672285 -0.317841
0.518743 0.673582 -0.317466
0.515401 0.674839 -0.317079
0.512037 0.67605 -0.316679
0.508652 0.677222 -0.316266
0.433966 0.582646 -0.271283
0.428905 0.580708 -0.269576
0.423891 0.578774 -0.267885
0.418923 0.576843 -0.266209
0.414001 0.574912 -0.264547
0.409124 0.572981 -0.262901
0.404292 0.571055 -0.261269
0.399504 0.569128 -0.259651
0.394763 0.567209 -0.258049
0.390759 0.566299 -0.256918
0.388003 0.56717 -0.256603
0.385536 0.568452 -0.25648
0.383063 0.569724 -0.256357
0.380739 0.571213 -0.256336
0.378425 0.572715 -0.256326
0.376103 0.574209 -0.256315
0.373775 0.575688 -0.256303
0.371439 0.577156 -0.256291
0.369096 0.578616 -0.256277
0.366747 0.580061 -0.256263
0.36439 0.581499 -0.256247
0.362026 0.58292 -0.256231
0.359656 0.584331 -0.256214
0.357279 0.585732 -0.256196
0.354895 0.587119 -0.256177
0.352505 0.588496 -0.256157
0.350108 0.589861 -0.256136
0.347705 0.591213 -0.256115
0.345295 0.592556 -0.256092
0.342879 0.593884 -0.256069
0.340858 0.595903 -0.256347
0.339159 0.598503 -0.256876
0.337435 0.601082 -0.257399
0.335687 0.60364 -0.257915
0.333916 0.606177 -0.258424
0.33212 0.608696 -0.258925
0.330301 0.611191 -0.259421
0.328457 0.613667 -0.259908
0.32659 0.616116 -0.260388
0.3247 0.618547 -0.260862
0.322785 0.620955 -0.261327
0.320848 0.623337 -0.261785
0.318887 0.625698 -0.262235
0.316903 0.628032 -0.262678
0.314896 0.630342 -0.263113
0.312866 0.632627 -0.26354
0.310814 0.634888 -0.263958
0.308739 0.637119 -0.264369
0.306641 0.639329 -0.264771
0.304521 0.641509 -0.265165
0.302379 0.643662 -0.265551
0.300215 0.645789 -0.265928
0.298028 0.647886 -0.266296
0.295821 0.649956 -0.266656
0.293592 0.651999 -0.267007
0.291342 0.654011 -0.26735
0.28907 0.655994 -0.267684
0.286778 0.657949 -0.268008
0.284465 0.659871 -0.268323
0.282132 0.661765 -0.268629
0.279779 0.663625 -0.268927
0.277406 0.665457 -0.269215
0.275013 0.667258 -0.269494
0.2726 0.669026 -0.269763
0.270169 0.670759 -0.270023
0.267718 0.672466 -0.270273
0.265249 0.674136 -0.270514
0.262761 0.675774 -0.270745
0.260255 0.677378 -0.270967
0.257731 0.678948 -0.271179
0.25519 0.680486 -0.271381
0.252631 0.68199 -0.271573
0.250056 0.683459 -0.271755
0.247463 0.684893 -0.271928
0.244854 0.686292 -0.27209
0.242229 0.687656 -0.272243
0.239588 0.688984 -0.272385
0.236932 0.690278 -0.272518
0.234866 0.693325 -0.273346
0.232779 0.69636 -0.274172
0.230664 0.699373 -0.27499
0.228522 0.702358 -0.275801
0.226353 0.705315 -0.276603
0.224158 0.70825 -0.277397
0.221935 0.71115 -0.278182
0.219686 0.714023 -0.278958
0.21741 0.71687 -0.279726
0.215108 0.719683 -0.280484
0.21278 0.722463 -0.281234
0.210427 0.725217 -0.281973
0.208046 0.727935 -0.282702
0.205641 0.730623 -0.283423
0.20321 0.733276 -0.284132
0.200753 0.735891 -0.284832
0.198271 0.738477 -0.28552
0.195766 0.741023 -0.286199
0.193235 0.743538 -0.286867
0.190724 0.746182 -0.28759
0.188188 0.748794 -0.288303
0.185628 0.751372 -0.289005
0.183043 0.753911 -0.289697
0.180434 0.756416 -0.290378
0.1778 0.758879 -0.291047
0.175144 0.761306 -0.291706
0.172464 0.763696 -0.292353
0.16976 0.766042 -0.292988
0.167034 0.768352 -0.293612
0.164286 0.770618 -0.294223
0.161515 0.772847 -0.294823
0.158722 0.775027 -0.29541
0.155908 0.777166 -0.295984
0.153073 0.779265 -0.296546
0.150217 0.781316 -0.297095
0.14734 0.783325 -0.297631
0.144443 0.785288 -0.298154
0.141526 0.787207 -0.298663
0.13859 0.789075 -0.299159
0.135636 0.790901 -0.299642
0.132662 0.792676 -0.30011
0.129671 0.794407 -0.300565
0.126662 0.796084 -0.301005
0.123635 0.797717 -0.301432
0.120592 0.799297 -0.301844
0.117532 0.800828 -0.302241
0.114457 0.80231 -0.302624
0.111366 0.80374 -0.302992
0.10826 0.80512 -0.303346
0.10514 0.806445 -0.303684
0.102006 0.807722 -0.304008
0.098858 0.808945 -0.304316
0.0956975 0.810115 -0.304609
0.0925246 0.81123 -0.304886
0.0893393 0.812295 -0.305149
0.0861429 0.813303 -0.305395
0.0829529 0.814431 -0.30569
0.0797623 0.81562 -0.306014
0.0765604 0.81676 -0.306323
0.0733473 0.817847 -0.306619
0.0701228 0.818887 -0.3069
0.0668889 0.819873 -0.307167
0.0636447 0.820811 -0.307419
0.0603911 0.821697 -0.307658
0.0571291 0.822532 -0.307881
0.0538588 0.823315 -0.308091
0.0505804 0.824043 -0.308286
0.0472952 0.824724 -0.308466
0.044003 0.825347 -0.308631
0.0407046 0.825923 -0.308782
0.0374004 0.82644 -0.308918
0.0340915 0.826909 -0.309039
0.0307773 0.827322 -0.309145
0.0274596 0.827686 -0.309236
0.0241385 0.827991 -0.309312
0.0208134 0.828247 -0.309373
0.0174866 0.828447 -0.30942
0.0141576 0.828594 -0.309451
0.010827 0.828689 -0.309468
0.00749573 0.82873 -0.309469
0.00416412 0.828716 -0.309455
0.000832367 0.82865 -0.309427
-0.00249863 0.828689 -0.309443
-0.00583008 0.82873 -0.309464
-0.00916183 0.828716 -0.30947
-0.012493 0.828647 -0.309461
-0.0158226 0.828528 -0.309438
-0.0191508 0.828354 -0.309399
-0.0224767 0.828127 -0.309345
-0.0257994 0.827844 -0.309276
-0.0291196 0.827512 -0.309192
-0.0324355 0.827122 -0.309093
-0.0357466 0.826682 -0.30898
-0.039054 0.826186 -0.308852
-0.042355 0.82564 -0.308708
-0.04565 0.825041 -0.30855
-0.0489394 0.82439 -0.308378
-0.0522208 0.823684 -0.30819
-0.0554951 0.82293 -0.307988
-0.0587617 0.822119 -0.307772
-0.0620193 0.821262 -0.307541
-0.0652681 0.820349 -0.307295
-0.0685074 0.819387 -0.307035
-0.0717364 0.818374 -0.306761
-0.0749553 0.81731 -0.306473
-0.0781631 0.816196 -0.30617
-0.0813596 0.815032 -0.305854
-0.0845435 0.813818 -0.305524
-0.0877429 0.812808 -0.305274
-0.0909338 0.81177 -0.305019
-0.0941129 0.810681 -0.304749
-0.0972801 0.809536 -0.304464
-0.100434 0.80834 -0.304164
-0.103575 0.80709 -0.303848
-0.106703 0.805791 -0.303517
-0.109816 0.804434 -0.303171
-0.112914 0.803032 -0.30281
-0.115997 0.801575 -0.302434
-0.119064 0.800071 -0.302044
-0.122116 0.798511 -0.301639
-0.125151 0.796907 -0.30122
-0.128169 0.795249 -0.300787
-0.131169 0.793547 -0.300339
-0.134152 0.791794 -0.299878
-0.137116 0.789995 -0.299402
-0.140061 0.788147 -0.298913
-0.142987 0.786255 -0.29841
-0.145894 0.784312 -0.297894
-0.148781 0.782327 -0.297365
-0.151647 0.780295 -0.296822
-0.154493 0.77822 -0.296267
-0.157318 0.776103 -0.295698
-0.160122 0.77394 -0.295118
-0.162903 0.771736 -0.294524
-0.165663 0.76949 -0.293919
-0.168401 0.767202 -0.293301
-0.171115 0.764873 -0.292672
-0.173807 0.762505 -0.292031
-0.176475 0.760098 -0.291378
-0.17912 0.757651 -0.290714
-0.181742 0.755168 -0.290039
-0.184339 0.752646 -0.289352
-0.186912 0.750085 -0.288655
-0.189459 0.747493 -0.287948
-0.191983 0.744863 -0.28723
-0.194503 0.742283 -0.286534
-0.197022 0.739753 -0.285861
-0.199516 0.737188 -0.285177
-0.201985 0.734587 -0.284483
-0.204428 0.731953 -0.283778
-0.206847 0.729285 -0.283064
-0.20924 0.726582 -0.282339
-0.211607 0.723845 -0.281604
-0.213948 0.721079 -0.28086
-0.216263 0.718279 -0.280106
-0.218552 0.715449 -0.279343
-0.220814 0.71259 -0.278571
-0.22305 0.709702 -0.27779
-0.225259 0.706785 -0.277001
-0.227441 0.70384 -0.276203
-0.229596 0.700867 -0.275396
-0.231725 0.697871 -0.274582
-0.233826 0.694846 -0.27376
-0.2359 0.691797 -0.27293
-0.238262 0.689636 -0.272453
-0.240911 0.688325 -0.272315
-0.243544 0.686978 -0.272168
-0.246161 0.685598 -0.27201
-0.248762 0.68418 -0.271843
-0.251346 0.682729 -0.271665
-0.253913 0.681243 -0.271478
-0.256463 0.679722 -0.271281
-0.258996 0.678169 -0.271074
-0.26151 0.67658 -0.270857
-0.264008 0.674961 -0.270631
-0.266486 0.673303 -0.270395
-0.268946 0.671616 -0.270149
-0.271387 0.669897 -0.269894
-0.273809 0.668145 -0.26963
-0.276212 0.666362 -0.269355
-0.278595 0.664546 -0.269072
-0.280958 0.662698 -0.268779
-0.283302 0.660823 -0.268478
-0.285625 0.658914 -0.268167
-0.287927 0.656973 -0.267846
-0.290209 0.655007 -0.267518
-0.29247 0.653008 -0.26718
-0.294709 0.650981 -0.266833
-0.296927 0.648926 -0.266477
-0.299125 0.646841 -0.266113
-0.3013 0.644727 -0.265741
-0.303453 0.64259 -0.265359
-0.305584 0.64042 -0.264969
-0.307693 0.638228 -0.264571
-0.309779 0.636006 -0.264165
-0.311843 0.63376 -0.26375
-0.313885 0.631487 -0.263327
-0.315903 0.629189 -0.262897
-0.317899 0.626868 -0.262458
-0.319871 0.624519 -0.262011
-0.32182 0.622148 -0.261557
-0.323746 0.619753 -0.261095
-0.325648 0.617334 -0.260626
-0.327527 0.614895 -0.26015
-0.329382 0.612432 -0.259665
-0.331214 0.609946 -0.259174
-0.333021 0.607439 -0.258675
-0.334805 0.604912 -0.25817
-0.336564 0.602361 -0.257657
-0.3383 0.599792 -0.257138
-0.340012 0.597205 -0.256612
-0.341699 0.594597 -0.25608
-0.344088 0.59322 -0.256081
-0.346501 0.591887 -0.256104
-0.348907 0.59054 -0.256126
-0.351308 0.58918 -0.256147
-0.353701 0.58781 -0.256167
-0.356088 0.586426 -0.256187
-0.358468 0.585032 -0.256205
-0.360843 0.583628 -0.256223
-0.363209 0.582209 -0.256239
-0.365569 0.580781 -0.256255
-0.367923 0.579341 -0.25627
-0.370269 0.577888 -0.256284
-0.372608 0.576426 -0.256297
-0.37494 0.574949 -0.25631
-0.377265 0.573462 -0.256321
-0.379583 0.571965 -0.256331
-0.381893 0.570457 -0.256341
-0.3843 0.569089 -0.256419
-0.38677 0.567813 -0.256542
-0.389236 0.566521 -0.256664
-0.392758 0.566755 -0.257483
-0.397127 0.568169 -0.258847
-0.401893 0.57009 -0.260458
-0.406702 0.572017 -0.262083
-0.411557 0.573948 -0.263722
-0.416457 0.575876 -0.265376
-0.421402 0.577808 -0.267045
-0.426392 0.579741 -0.268728
-0.43143 0.581677 -0.270428
-0.436514 0.583616 -0.272142
-0.510348 0.676641 -0.316474
-0.513722 0.675449 -0.31688
-0.517075 0.674214 -0.317274
-0.520406 0.672939 -0.317655
-0.523714 0.671621 -0.318024
-0.526998 0.670259 -0.31838
0.519883 0.573203 -0.298775
0.514431 0.571797 -0.296961
0.509023 0.570378 -0.295159
0.503657 0.568955 -0.293372
0.498335 0.567522 -0.291599
0.493056 0.566084 -0.289839
0.48782 0.564639 -0.288093
0.482626 0.563188 -0.286361
0.477475 0.561733 -0.284641
0.472364 0.560271 -0.282936
0.467296 0.558799 -0.281243
0.462269 0.557327 -0.279564
0.457283 0.555847 -0.277897
0.452338 0.554365 -0.276244
0.447433 0.552874 -0.274604
0.442568 0.551382 -0.272976
0.437743 0.549885 -0.271362
0.432958 0.548384 -0.269759
0.428212 0.546875 -0.26817
0.423505 0.545369 -0.266593
0.418837 0.543855 -0.265029
0.414207 0.542341 -0.263476
0.409615 0.54082 -0.261936
0.405061 0.539299 -0.260409
0.400545 0.537776 -0.258893
0.396714 0.537124 -0.25781
0.39292 0.536487 -0.256744
0.389145 0.53584 -0.255683
0.386477 0.536689 -0.255345
0.384148 0.538 -0.255233
0.381813 0.539304 -0.25512
0.379473 0.540593 -0.255007
0.377127 0.541873 -0.254892
0.374776 0.543137 -0.254777
0.37242 0.54439 -0.254661
0.37008 0.545667 -0.254559
0.367872 0.547131 -0.254551
0.365657 0.548586 -0.254542
0.363436 0.550032 -0.254532
0.361207 0.551465 -0.254522
0.358971 0.552888 -0.254511
0.356728 0.554302 -0.254499
0.354479 0.555701 -0.254485
0.352223 0.55709 -0.254472
0.349961 0.558472 -0.254457
0.347692 0.559839 -0.254442
0.345416 0.561199 -0.254425
0.343134 0.562544 -0.254408
0.340846 0.563877 -0.25439
0.338551 0.565203 -0.254371
0.33625 0.566514 -0.254351
0.333943 0.567815 -0.254331
0.33163 0.569106 -0.254309
0.329311 0.570383 -0.254287
0.326986 0.57165 -0.254264
0.324655 0.572908 -0.25424
0.322318 0.57415 -0.254216
0.319975 0.575386 -0.25419
0.317626 0.576606 -0.254164
0.315272 0.577815 -0.254136
0.312912 0.579016 -0.254108
0.310546 0.580203 -0.254079
0.308175 0.581377 -0.25405
0.305799 0.582541 -0.254019
0.303417 0.583694 -0.253988
0.30103 0.584836 -0.253955
0.298638 0.585964 -0.253922
0.29624 0.58708 -0.253888
0.293837 0.588188 -0.253854
0.29143 0.589282 -0.253818
0.289017 0.590364 -0.253782
0.2866 0.591436 -0.253745
0.284177 0.592493 -0.253707
0.28175 0.59354 -0.253668
0.279318 0.594575 -0.253628
0.276882 0.595596 -0.253588
0.27444 0.596609 -0.253547
0.271995 0.597607 -0.253504
0.269545 0.598594 -0.253462
0.26709 0.59957 -0.253418
0.264631 0.600535 -0.253374
0.262168 0.601487 -0.253328
0.259701 0.602424 -0.253282
0.257229 0.603352 -0.253235
0.254754 0.604268 -0.253188
0.252274 0.605171 -0.253139
0.249791 0.606064 -0.25309
0.247304 0.606941 -0.25304
0.244813 0.607808 -0.252989
0.242318 0.608665 -0.252937
0.239819 0.609507 -0.252885
0.237317 0.610337 -0.252831
0.234811 0.611155 -0.252777
0.232303 0.61196 -0.252723
0.22979 0.612756 -0.252667
0.227274 0.613538 -0.252611
0.224806 0.614448 -0.252611
0.222462 0.615698 -0.252755
0.220103 0.616916 -0.252891
0.217731 0.61811 -0.253019
0.215346 0.61927 -0.253138
0.212948 0.6204 -0.253248
0.210537 0.621504 -0.253351
0.208114 0.622576 -0.253444
0.205679 0.623618 -0.25353
0.203231 0.624629 -0.253606
0.200773 0.625608 -0.253675
0.198303 0.626558 -0.253734
0.195839 0.627529 -0.253807
0.19379 0.629856 -0.254432
0.191721 0.632163 -0.255049
0.189658 0.634534 -0.255696
0.187582 0.636909 -0.256348
0.185485 0.63926 -0.256992
0.183367 0.641584 -0.257628
0.181228 0.643884 -0.258257
0.179068 0.64616 -0.258878
0.176886 0.648406 -0.259491
0.174685 0.650623 -0.260096
0.172474 0.652859 -0.26071
0.170255 0.655112 -0.261334
0.168016 0.657339 -0.261952
0.165757 0.659543 -0.262562
0.163479 0.661719 -0.263165
0.161181 0.66387 -0.26376
0.158865 0.665994 -0.264347
0.156529 0.668088 -0.264928
0.154174 0.670156 -0.265499
0.151801 0.672195 -0.266063
0.149408 0.674204 -0.266619
0.146998 0.676187 -0.267167
0.14457 0.678137 -0.267706
0.142124 0.680061 -0.268237
0.13966 0.681948 -0.268759
0.137179 0.683809 -0.269272
0.134681 0.685637 -0.269776
0.132166 0.687434 -0.270272
0.129635 0.689199 -0.270758
0.127086 0.690928 -0.271235
0.124522 0.692625 -0.271703
0.121942 0.69429 -0.272161
0.119347 0.69592 -0.27261
0.116736 0.697517 -0.273049
0.114111 0.699077 -0.273479
0.11147 0.700603 -0.273898
0.108815 0.702092 -0.274307
0.106146 0.703547 -0.274707
0.103463 0.704968 -0.275096
0.100767 0.706348 -0.275475
0.098058 0.707695 -0.275844
0.0953357 0.709001 -0.276202
0.0926012 0.710269 -0.276549
0.0898546 0.711504 -0.276886
0.0870958 0.712695 -0.277212
0.084326 0.713853 -0.277527
0.0815451 0.714968 -0.277831
0.0787532 0.716045 -0.278125
0.0759512 0.717083 -0.278407
0.0731392 0.718079 -0.278678
0.0703172 0.719038 -0.278938
0.0674864 0.719956 -0.279186
0.0646468 0.720835 -0.279424
0.0617981 0.72167 -0.27965
0.0589418 0.722468 -0.279864
0.0560777 0.72322 -0.280067
0.0532062 0.723936 -0.280258
0.0503276 0.724607 -0.280438
0.0474431 0.725239 -0.280606
0.0445517 0.725828 -0.280762
0.0416551 0.726372 -0.280906
0.0387532 0.726877 -0.281039
0.0358459 0.727339 -0.28116
0.0329349 0.727761 -0.281268
0.0300194 0.728137 -0.281366
0.0270999 0.728474 -0.281451
0.0241779 0.728765 -0.281524
0.0212527 0.729016 -0.281585
0.018325 0.729221 -0.281634
0.0153954 0.729387 -0.281671
0.0124644 0.729504 -0.281696
0.00953201 0.729585 -0.28171
0.00659927 0.729622 -0.281711
0.00366608 0.729612 -0.2817
0.00073288 0.729561 -0.281677
-0.00219986 0.729592 -0.28169
-0.00513275 0.729622 -0.281707
-0.0080661 0.729607 -0.281712
-0.0109988 0.729553 -0.281705
-0.0139307 0.729451 -0.281685
-0.0168613 0.729309 -0.281654
-0.0197896 0.729124 -0.281611
-0.0227162 0.728896 -0.281556
-0.0256398 0.728625 -0.281489
-0.0285605 0.728311 -0.28141
-0.031478 0.727957 -0.281319
-0.0343915 0.727554 -0.281216
-0.0373007 0.727114 -0.281101
-0.0402051 0.726631 -0.280974
-0.043105 0.726106 -0.280836
-0.0459985 0.725537 -0.280685
-0.0488864 0.724929 -0.280523
-0.0517683 0.724277 -0.280349
-0.0546431 0.723584 -0.280164
-0.057511 0.722849 -0.279967
-0.0603716 0.722075 -0.279758
-0.0632236 0.721257 -0.279538
-0.0660677 0.7204 -0.279306
-0.0689038 0.719502 -0.279064
-0.07173 0.718564 -0.278809
-0.0745468 0.717588 -0.278544
-0.0773541 0.716567 -0.278267
-0.0801509 0.715513 -0.27798
-0.0829373 0.714414 -0.277681
-0.0857127 0.713279 -0.277371
-0.0884773 0.712104 -0.27705
-0.0912296 0.710891 -0.276719
-0.0939705 0.709641 -0.276377
-0.0966989 0.70835 -0.276024
-0.0994147 0.707026 -0.275661
-0.102117 0.705662 -0.275287
-0.104807 0.704263 -0.274903
-0.107483 0.702825 -0.274509
-0.110145 0.701353 -0.274104
-0.112793 0.699844 -0.273689
-0.115426 0.698301 -0.273266
-0.118044 0.696724 -0.272831
-0.120647 0.69511 -0.272387
-0.123235 0.693462 -0.271934
-0.125807 0.691782 -0.27147
-0.128363 0.690066 -0.270998
-0.130903 0.68832 -0.270516
-0.133426 0.686538 -0.270025
-0.135933 0.684727 -0.269525
-0.138422 0.682883 -0.269016
-0.140895 0.681006 -0.268498
-0.14335 0.679104 -0.267972
-0.145787 0.677166 -0.267437
-0.148206 0.675198 -0.266894
-0.150607 0.673203 -0.266342
-0.15299 0.671179 -0.265782
-0.155354 0.669124 -0.265214
-0.157699 0.667043 -0.264638
-0.160026 0.664934 -0.264054
-0.162333 0.662798 -0.263463
-0.164621 0.660635 -0.262864
-0.166889 0.658445 -0.262257
-0.169138 0.65623 -0.261644
-0.171367 0.653989 -0.261023
-0.173576 0.651721 -0.260395
-0.175789 0.649519 -0.259794
-0.17798 0.647285 -0.259185
-0.18015 0.645024 -0.258568
-0.1823 0.642739 -0.257943
-0.184429 0.640425 -0.25731
-0.186537 0.638086 -0.25667
-0.188624 0.635725 -0.256023
-0.190688 0.633337 -0.255368
-0.192759 0.631013 -0.254742
-0.194818 0.628699 -0.25412
-0.197065 0.627021 -0.253761
-0.19954 0.626086 -0.253706
-0.202004 0.625122 -0.253642
-0.204457 0.624126 -0.253569
-0.206898 0.623101 -0.253488
-0.209327 0.622043 -0.253399
-0.211744 0.620957 -0.253301
-0.214148 0.619841 -0.253194
-0.21654 0.618694 -0.253079
-0.218919 0.617515 -0.252956
-0.221284 0.616311 -0.252824
-0.223636 0.615076 -0.252684
-0.226015 0.613923 -0.252582
-0.228533 0.613147 -0.252639
-0.231047 0.612358 -0.252695
-0.233558 0.61156 -0.25275
-0.236065 0.610747 -0.252804
-0.238569 0.609924 -0.252858
-0.241069 0.609087 -0.252911
-0.243566 0.608237 -0.252963
-0.246059 0.607378 -0.253014
-0.248548 0.606504 -0.253065
-0.251033 0.60562 -0.253115
-0.253515 0.604722 -0.253163
-0.255993 0.603811 -0.253211
-0.258466 0.602891 -0.253259
-0.260936 0.601956 -0.253305
-0.263401 0.601013 -0.253351
-0.265862 0.600054 -0.253396
-0.268318 0.599084 -0.25344
-0.270771 0.598103 -0.253483
-0.273219 0.597109 -0.253526
-0.275662 0.596103 -0.253567
-0.278101 0.595088 -0.253608
-0.280535 0.594058 -0.253648
-0.282965 0.593018 -0.253687
-0.285389 0.591965 -0.253726
-0.28781 0.590898 -0.253763
-0.290225 0.589824 -0.2538
-0.292635 0.588735 -0.253836
-0.29504 0.587634 -0.253871
-0.29744 0.586526 -0.253905
-0.299835 0.5854 -0.253939
-0.302225 0.584268 -0.253972
-0.304609 0.58312 -0.254003
-0.306988 0.58196 -0.254034
-0.309362 0.580791 -0.254064
-0.31173 0.579609 -0.254094
-0.314093 0.578416 -0.254122
-0.31645 0.577212 -0.25415
-0.318802 0.575996 -0.254177
-0.321147 0.574771 -0.254203
-0.323487 0.57353 -0.254228
-0.325821 0.57228 -0.254252
-0.328149 0.571018 -0.254276
-0.330472 0.569746 -0.254298
-0.332788 0.568459 -0.25432
-0.335098 0.567165 -0.254341
-0.337402 0.565859 -0.254361
-0.3397 0.564541 -0.254381
-0.341991 0.563213 -0.254399
-0.344277 0.56187 -0.254417
-0.346556 0.56052 -0.254433
-0.348828 0.559155 -0.254449
-0.351093 0.557783 -0.254465
-0.353353 0.556399 -0.254479
-0.355605 0.555002 -0.254492
-0.357851 0.553594 -0.254505
-0.36009 0.552178 -0.254516
-0.362322 0.550749 -0.254527
-0.364548 0.549309 -0.254537
-0.366766 0.547861 -0.254546
-0.368978 0.546399 -0.254555
-0.37124 0.545015 -0.254602
-0.373599 0.543765 -0.254719
-0.375953 0.542505 -0.254835
-0.378301 0.541235 -0.25495
-0.380644 0.539949 -0.255064
-0.382982 0.538655 -0.255177
-0.385313 0.537349 -0.255289
-0.38764 0.536028 -0.255401
-0.391031 0.536167 -0.256213
-0.394815 0.536807 -0.257276
-0.398618 0.537439 -0.258345
-0.402799 0.538538 -0.259649
-0.407334 0.540061 -0.261171
-0.411907 0.541582 -0.262705
-0.416518 0.543101 -0.264251
-0.421167 0.544612 -0.265809
-0.425855 0.546123 -0.26738
-0.43058 0.547629 -0.268963
-0.435346 0.549136 -0.270559
-0.440152 0.550632 -0.272168
-0.444996 0.552129 -0.273788
-0.449881 0.553621 -0.275422
-0.454806 0.555107 -0.277069
-0.459772 0.556587 -0.278729
-0.464778 0.558064 -0.280402
-0.469826 0.559536 -0.282088
-0.474914 0.561001 -0.283787
-0.480046 0.562463 -0.2855
-0.485218 0.563914 -0.287225
-0.490433 0.565361 -0.288965
-0.495691 0.566804 -0.290718
-0.500992 0.56824 -0.292484
-0.506335 0.569668 -0.294264
-0.511721 0.571089 -0.296058
-0.517152 0.572502 -0.297866
0.516481 0.533901 -0.296301
0.51144 0.532959 -0.294635
0.506433 0.532007 -0.292981
0.501462 0.531042 -0.291337
0.496524 0.530066 -0.289704
0.491621 0.529077 -0.288082
0.486752 0.528079 -0.28647
0.481916 0.52707 -0.284869
0.477114 0.52605 -0.283278
0.472347 0.52502 -0.281699
0.467613 0.523977 -0.280129
0.462912 0.522927 -0.27857
0.458245 0.521868 -0.277022
0.453611 0.520796 -0.275484
0.44901 0.519717 -0.273956
0.444442 0.51863 -0.272439
0.439907 0.517537 -0.270932
0.435404 0.516428 -0.269435
0.430934 0.515317 -0.267949
0.426496 0.514197 -0.266473
0.422091 0.513069 -0.265007
0.417717 0.511934 -0.263551
0.413376 0.510791 -0.262105
0.409066 0.509641 -0.26067
0.404964 0.508706 -0.259357
0.401346 0.508345 -0.258346
0.397744 0.507966 -0.25734
0.394158 0.507578 -0.256338
0.390588 0.507175 -0.25534
0.387033 0.50676 -0.254346
0.384668 0.507881 -0.254131
0.382469 0.509221 -0.254029
0.380265 0.510547 -0.253926
0.378055 0.51186 -0.253822
0.37584 0.513166 -0.253718
0.373619 0.51446 -0.253613
0.371393 0.515742 -0.253507
0.369161 0.517014 -0.2534
0.366923 0.518271 -0.253292
0.36468 0.519519 -0.253184
0.362433 0.520757 -0.253075
0.36018 0.521982 -0.252964
0.357978 0.523281 -0.252893
0.355862 0.524702 -0.252887
0.353739 0.526111 -0.252879
0.35161 0.527512 -0.252871
0.349474 0.528901 -0.252862
0.347331 0.530281 -0.252852
0.345182 0.531653 -0.252841
0.343026 0.53301 -0.252829
0.340864 0.534358 -0.252817
0.338696 0.535698 -0.252804
0.336521 0.537024 -0.25279
0.33434 0.53834 -0.252775
0.332153 0.539648 -0.252759
0.329959 0.540942 -0.252743
0.32776 0.542227 -0.252726
0.325554 0.543503 -0.252708
0.323342 0.544766 -0.252689
0.321125 0.546018 -0.252669
0.318902 0.547261 -0.252649
0.316672 0.548494 -0.252628
0.314437 0.549712 -0.252606
0.312197 0.550923 -0.252583
0.309951 0.552122 -0.252559
0.307699 0.553308 -0.252535
0.305441 0.554487 -0.252509
0.303178 0.555652 -0.252483
0.30091 0.556809 -0.252456
0.298637 0.557952 -0.252429
0.296358 0.559084 -0.2524
0.294074 0.560207 -0.252371
0.291786 0.561318 -0.252341
0.289491 0.562417 -0.25231
0.287192 0.563508 -0.252279
0.284888 0.564585 -0.252246
0.282579 0.565649 -0.252213
0.280265 0.566707 -0.252179
0.277946 0.567749 -0.252145
0.275623 0.568784 -0.252109
0.273295 0.569805 -0.252073
0.270962 0.570813 -0.252036
0.268625 0.571814 -0.251998
0.266283 0.5728 -0.251959
0.263937 0.573774 -0.25192
0.261587 0.574741 -0.25188
0.259232 0.575693 -0.251839
0.256873 0.576633 -0.251797
0.25451 0.577566 -0.251754
0.252143 0.578484 -0.251711
0.249772 0.579392 -0.251667
0.247397 0.580288 -0.251622
0.245017 0.581172 -0.251577
0.242634 0.582046 -0.25153
0.240247 0.582908 -0.251483
0.237857 0.583757 -0.251435
0.235463 0.584595 -0.251387
0.233065 0.585422 -0.251337
0.230664 0.586238 -0.251287
0.228259 0.587041 -0.251236
0.225851 0.587832 -0.251185
0.223439 0.588613 -0.251132
0.221025 0.589382 -0.251079
0.218607 0.590142 -0.251025
0.216186 0.590884 -0.25097
0.213762 0.591619 -0.250915
0.211334 0.592341 -0.250859
0.208904 0.593052 -0.250802
0.206471 0.593748 -0.250745
0.204035 0.594436 -0.250686
0.201596 0.59511 -0.250627
0.199155 0.595776 -0.250568
0.196711 0.596426 -0.250507
0.194264 0.597065 -0.250446
0.191815 0.597695 -0.250384
0.189373 0.598342 -0.250334
0.186992 0.599182 -0.250369
0.184607 0.60001 -0.250403
0.182218 0.600828 -0.250437
0.179825 0.601636 -0.25047
0.177428 0.602432 -0.250502
0.175027 0.603215 -0.250534
0.172622 0.603989 -0.250565
0.170213 0.604751 -0.250595
0.167801 0.605503 -0.250625
0.165384 0.606243 -0.250654
0.162964 0.60697 -0.250683
0.160541 0.60769 -0.25071
0.158114 0.608396 -0.250738
0.155684 0.609089 -0.250764
0.15325 0.609775 -0.25079
0.150812 0.610447 -0.250815
0.148372 0.611111 -0.25084
0.145928 0.61176 -0.250864
0.143481 0.612397 -0.250887
0.141031 0.613027 -0.25091
0.138578 0.61364 -0.250932
0.136121 0.614248 -0.250954
0.133662 0.614839 -0.250974
0.1312 0.61542 -0.250995
0.128734 0.615991 -0.251014
0.126267 0.61655 -0.251033
0.123796 0.617097 -0.251051
0.121323 0.617634 -0.251069
0.118848 0.618157 -0.251086
0.116369 0.618672 -0.251102
0.113888 0.619172 -0.251117
0.111546 0.620444 -0.251451
0.109215 0.621829 -0.25183
0.106872 0.623181 -0.252202
0.104517 0.624507 -0.252566
0.102149 0.625798 -0.252921
0.0997693 0.627063 -0.253268
0.0973778 0.628301 -0.253607
0.094975 0.629504 -0.253938
0.0925606 0.630679 -0.25426
0.0901353 0.631824 -0.254573
0.0876997 0.632937 -0.254877
0.0852536 0.634023 -0.255173
0.0827974 0.635071 -0.25546
0.080331 0.636091 -0.255739
0.0778551 0.63708 -0.256008
0.0753699 0.638032 -0.256267
0.0728758 0.638955 -0.256519
0.0703729 0.639849 -0.256761
0.0678618 0.640706 -0.256994
0.0653424 0.641533 -0.257217
0.0628152 0.642324 -0.257432
0.0602805 0.643081 -0.257636
0.0577388 0.643809 -0.257832
0.0551897 0.644499 -0.258018
0.0526346 0.645159 -0.258195
0.0500732 0.645781 -0.258362
0.0475055 0.646372 -0.258519
0.0449324 0.646929 -0.258667
0.0423543 0.647449 -0.258806
0.0397707 0.647937 -0.258934
0.0371829 0.648389 -0.259053
0.0345908 0.648806 -0.259162
0.0319945 0.649187 -0.259261
0.0293948 0.649536 -0.259351
0.0267918 0.649849 -0.259431
0.0241853 0.650127 -0.259501
0.021577 0.650371 -0.259561
0.0189662 0.650579 -0.259612
0.016353 0.65075 -0.259652
0.0137384 0.650886 -0.259682
0.0111229 0.650986 -0.259703
0.00850601 0.651055 -0.259714
0.00588898 0.651086 -0.259715
0.00327148 0.651082 -0.259706
0.000653992 0.651042 -0.259687
-0.00196335 0.651067 -0.259698
-0.00458038 0.651089 -0.259711
-0.00719803 0.651074 -0.259716
-0.00981506 0.651028 -0.25971
-0.0124315 0.650942 -0.259694
-0.0150467 0.650823 -0.259669
-0.0176601 0.650666 -0.259633
-0.0202722 0.650476 -0.259588
-0.0228819 0.650254 -0.259532
-0.0254895 0.649993 -0.259467
-0.0280939 0.649695 -0.259392
-0.0306956 0.649368 -0.259308
-0.0332936 0.649001 -0.259213
-0.0358873 0.648601 -0.259109
-0.0384779 0.648166 -0.258995
-0.0410635 0.647695 -0.258871
-0.0436443 0.647192 -0.258737
-0.0462202 0.646653 -0.258594
-0.0487904 0.646082 -0.258441
-0.0513548 0.645474 -0.258279
-0.0539134 0.644832 -0.258107
-0.0564653 0.644158 -0.257926
-0.0590106 0.64345 -0.257735
-0.0615492 0.64271 -0.257535
-0.0640802 0.641931 -0.257325
-0.0666032 0.641121 -0.257106
-0.069119 0.640281 -0.256878
-0.0716257 0.639407 -0.256641
-0.0741243 0.638501 -0.256394
-0.0766141 0.637561 -0.256139
-0.0790947 0.636587 -0.255874
-0.0815654 0.635586 -0.255601
-0.0840271 0.634548 -0.255318
-0.0864787 0.633484 -0.255026
-0.0889194 0.632385 -0.254726
-0.0913501 0.631255 -0.254417
-0.0937695 0.630098 -0.2541
-0.0961781 0.628904 -0.253773
-0.0985757 0.627686 -0.253439
-0.100961 0.626436 -0.253096
-0.103335 0.625154 -0.252744
-0.105697 0.623845 -0.252385
-0.108046 0.622507 -0.252017
-0.110382 0.62114 -0.251641
-0.112706 0.619746 -0.251257
-0.115129 0.618923 -0.251109
-0.117609 0.618418 -0.251094
-0.120086 0.617898 -0.251077
-0.12256 0.617366 -0.25106
-0.125032 0.616826 -0.251042
-0.127502 0.616272 -0.251024
-0.129968 0.615706 -0.251004
-0.132431 0.615132 -0.250985
-0.134892 0.614543 -0.250964
-0.13735 0.613945 -0.250943
-0.139805 0.613335 -0.250921
-0.142257 0.612712 -0.250899
-0.144705 0.61208 -0.250876
-0.147151 0.611436 -0.250852
-0.149593 0.610781 -0.250828
-0.152032 0.610112 -0.250803
-0.154467 0.609434 -0.250777
-0.1569 0.608745 -0.250751
-0.159329 0.608044 -0.250724
-0.161754 0.607332 -0.250697
-0.164176 0.606609 -0.250668
-0.166593 0.605874 -0.250639
-0.169008 0.605129 -0.25061
-0.171418 0.604373 -0.25058
-0.173825 0.603603 -0.250549
-0.176228 0.602825 -0.250518
-0.178627 0.602034 -0.250486
-0.181022 0.601233 -0.250453
-0.183413 0.600422 -0.25042
-0.185801 0.599597 -0.250386
-0.188183 0.598765 -0.250352
-0.190589 0.598003 -0.250352
-0.19304 0.59738 -0.250415
-0.195488 0.596748 -0.250476
-0.197933 0.596101 -0.250537
-0.200376 0.595444 -0.250597
-0.202816 0.594775 -0.250657
-0.205254 0.594094 -0.250716
-0.207688 0.593401 -0.250773
-0.21012 0.592698 -0.250831
-0.212548 0.59198 -0.250887
-0.214974 0.591252 -0.250943
-0.217397 0.590513 -0.250998
-0.219817 0.589763 -0.251052
-0.222233 0.588999 -0.251106
-0.224646 0.588223 -0.251159
-0.227056 0.587439 -0.251211
-0.229463 0.586641 -0.251262
-0.231865 0.585833 -0.251312
-0.234265 0.585012 -0.251362
-0.236661 0.584177 -0.251411
-0.239053 0.583335 -0.251459
-0.241442 0.582478 -0.251507
-0.243827 0.581609 -0.251554
-0.246208 0.580732 -0.2516
-0.248585 0.579841 -0.251645
-0.250958 0.57894 -0.251689
-0.253327 0.578027 -0.251733
-0.255692 0.577102 -0.251776
-0.258054 0.576167 -0.251818
-0.26041 0.575217 -0.251859
-0.262763 0.574258 -0.2519
-0.265112 0.573289 -0.25194
-0.267455 0.572307 -0.251979
-0.269794 0.571316 -0.252017
-0.272129 0.57031 -0.252054
-0.27446 0.569294 -0.252091
-0.276786 0.568269 -0.252127
-0.279106 0.567229 -0.252162
-0.281423 0.566179 -0.252197
-0.283734 0.56512 -0.25223
-0.286041 0.564045 -0.252263
-0.288343 0.562961 -0.252295
-0.290639 0.56187 -0.252326
-0.292931 0.560764 -0.252356
-0.295217 0.559648 -0.252386
-0.297498 0.55852 -0.252415
-0.299775 0.55738 -0.252443
-0.302046 0.556233 -0.25247
-0.304311 0.555071 -0.252496
-0.306571 0.553899 -0.252522
-0.308826 0.552717 -0.252547
-0.311075 0.551523 -0.252571
-0.313318 0.550317 -0.252594
-0.315556 0.549104 -0.252617
-0.317788 0.547878 -0.252638
-0.320014 0.546641 -0.252659
-0.322234 0.545393 -0.252679
-0.324449 0.544136 -0.252698
-0.326658 0.542864 -0.252717
-0.328861 0.541587 -0.252734
-0.331057 0.540295 -0.252751
-0.333248 0.538997 -0.252767
-0.335432 0.537683 -0.252782
-0.33761 0.53636 -0.252797
-0.339781 0.535029 -0.25281
-0.341946 0.533687 -0.252823
-0.344105 0.532332 -0.252835
-0.346258 0.530969 -0.252846
-0.348404 0.529592 -0.252857
-0.350543 0.528208 -0.252866
-0.352676 0.526814 -0.252875
-0.354802 0.525408 -0.252883
-0.356921 0.523992 -0.25289
-0.359052 0.522593 -0.252909
-0.361308 0.521372 -0.25302
-0.363558 0.520139 -0.253129
-0.365803 0.518899 -0.253238
-0.368043 0.517644 -0.253346
-0.370277 0.516377 -0.253454
-0.372507 0.515103 -0.25356
-0.374731 0.513813 -0.253666
-0.376949 0.512515 -0.25377
-0.379161 0.511206 -0.253874
-0.381368 0.509885 -0.253978
-0.383569 0.508552 -0.25408
-0.385765 0.507209 -0.254182
-0.388809 0.506968 -0.254843
-0.392371 0.507378 -0.255839
-0.39595 0.507773 -0.256839
-0.399544 0.508157 -0.257843
-0.403153 0.508528 -0.258851
-0.406924 0.509065 -0.259955
-0.411217 0.510217 -0.261386
-0.415543 0.511362 -0.262827
-0.419901 0.512502 -0.264278
-0.42429 0.513635 -0.265739
-0.428711 0.514761 -0.26721
-0.433165 0.515874 -0.268691
-0.437652 0.516985 -0.270183
-0.442171 0.518084 -0.271685
-0.446722 0.519175 -0.273196
-0.451307 0.520259 -0.274719
-0.455924 0.521333 -0.276252
-0.460575 0.5224 -0.277795
-0.465259 0.523452 -0.279349
-0.469976 0.524499 -0.280913
-0.474727 0.525537 -0.282487
-0.479512 0.526563 -0.284073
-0.48433 0.527576 -0.285668
-0.489182 0.528579 -0.287275
-0.494068 0.529575 -0.288892
-0.498989 0.530557 -0.290519
-0.503944 0.531526 -0.292158
-0.508933 0.532485 -0.293807
-0.513956 0.533433 -0.295467
-0.4133 -0.753872 -0.354021
-0.402193 -0.740659 -0.347055
-0.382809 -0.711772 -0.332794
-0.380111 -0.713616 -0.33294
-0.377399 -0.715442 -0.333081
-0.374675 -0.717251 -0.33322
-0.371939 -0.719041 -0.333354
-0.369191 -0.720813 -0.333485
-0.366429 -0.722566 -0.333611
-0.363656 -0.724302 -0.333735
-0.360871 -0.726016 -0.333854
-0.358073 -0.727715 -0.33397
0.35667 -0.728555 -0.334027
0.359474 -0.726868 -0.333913
0.362265 -0.725161 -0.333795
0.365044 -0.723437 -0.333674
0.367811 -0.721692 -0.333549
0.370566 -0.719929 -0.33342
0.373309 -0.718147 -0.333287
0.376039 -0.716348 -0.333151
0.378757 -0.714531 -0.333011
0.381461 -0.712695 -0.332867
0.396795 -0.734236 -0.343669
0.407697 -0.747209 -0.350507
0.511596 0.495898 -0.293392
0.506958 0.495371 -0.291871
0.502345 0.494829 -0.290358
0.497759 0.49427 -0.288854
0.4932 0.493696 -0.287357
0.488666 0.493105 -0.285869
0.484159 0.492502 -0.284388
0.479679 0.491885 -0.282916
0.475226 0.491255 -0.281452
0.470799 0.49061 -0.279996
0.466398 0.489949 -0.278547
0.462025 0.48928 -0.277108
0.457677 0.488596 -0.275676
0.453356 0.487898 -0.274252
0.449061 0.487187 -0.272837
0.444793 0.486467 -0.271429
0.44055 0.485735 -0.27003
0.436335 0.48499 -0.268639
0.432145 0.484233 -0.267256
0.427981 0.483469 -0.26588
0.423845 0.48269 -0.264514
0.419733 0.481902 -0.263155
0.415648 0.481101 -0.261804
0.411589 0.480293 -0.260461
0.408133 0.480156 -0.259494
0.404714 0.480029 -0.258545
0.401307 0.47989 -0.257599
0.397913 0.479736 -0.256656
0.394531 0.47957 -0.255716
0.391162 0.47939 -0.25478
0.387806 0.479197 -0.253846
0.384664 0.479238 -0.253048
0.382595 0.480608 -0.252956
0.38052 0.481965 -0.252864
0.37844 0.483313 -0.25277
0.376354 0.484651 -0.252676
0.374261 0.485974 -0.252581
0.372163 0.48729 -0.252485
0.37006 0.488596 -0.252388
0.367951 0.48989 -0.252291
0.365836 0.491174 -0.252193
0.363715 0.492449 -0.252093
0.361589 0.493708 -0.251994
0.359458 0.494961 -0.251893
0.357322 0.496204 -0.251792
0.35518 0.497434 -0.25169
0.353033 0.498652 -0.251587
0.350881 0.499863 -0.251483
0.348724 0.50106 -0.251379
0.34665 0.502375 -0.251337
0.34462 0.503755 -0.251332
0.342584 0.505122 -0.251325
0.34054 0.50648 -0.251318
0.338491 0.50783 -0.25131
0.336435 0.509167 -0.251301
0.334373 0.510496 -0.251292
0.332305 0.511816 -0.251281
0.33023 0.513125 -0.25127
0.328149 0.514424 -0.251259
0.326062 0.515715 -0.251246
0.323969 0.516992 -0.251232
0.32187 0.518262 -0.251218
0.319765 0.519521 -0.251203
0.317654 0.520769 -0.251188
0.315537 0.522007 -0.251171
0.313415 0.523237 -0.251154
0.311286 0.524453 -0.251136
0.309152 0.525662 -0.251117
0.307013 0.52686 -0.251098
0.304868 0.528047 -0.251077
0.302717 0.529224 -0.251056
0.300561 0.530391 -0.251034
0.2984 0.531545 -0.251012
0.296233 0.53269 -0.250988
0.29406 0.533828 -0.250964
0.291883 0.534951 -0.250939
0.289701 0.536064 -0.250914
0.287513 0.53717 -0.250887
0.285321 0.538262 -0.25086
0.283123 0.539343 -0.250832
0.28092 0.540417 -0.250803
0.278713 0.541477 -0.250774
0.2765 0.542527 -0.250744
0.274283 0.543569 -0.250713
0.272062 0.544597 -0.250681
0.269835 0.545615 -0.250649
0.267604 0.546626 -0.250615
0.265369 0.547622 -0.250581
0.263129 0.548606 -0.250547
0.260884 0.549582 -0.250511
0.258635 0.550547 -0.250475
0.256382 0.551501 -0.250438
0.254125 0.552444 -0.2504
0.251863 0.553376 -0.250362
0.249597 0.554299 -0.250322
0.247328 0.555207 -0.250282
0.245054 0.556106 -0.250242
0.242776 0.556997 -0.2502
0.240495 0.557874 -0.250158
0.23821 0.558738 -0.250115
0.23592 0.559595 -0.250072
0.233627 0.560439 -0.250027
0.231331 0.561274 -0.249982
0.229031 0.562095 -0.249936
0.226727 0.562905 -0.24989
0.22442 0.563708 -0.249843
0.222109 0.564497 -0.249795
0.219796 0.565273 -0.249746
0.217478 0.566042 -0.249696
0.215158 0.566797 -0.249646
0.212834 0.567541 -0.249595
0.210508 0.568276 -0.249544
0.208178 0.568997 -0.249492
0.205845 0.569709 -0.249439
0.203509 0.570408 -0.249385
0.201171 0.571096 -0.24933
0.198829 0.571775 -0.249275
0.196485 0.572441 -0.249219
0.194138 0.573096 -0.249163
0.191789 0.57374 -0.249106
0.189437 0.574373 -0.249048
0.187118 0.575103 -0.249037
0.184831 0.575933 -0.249071
0.182539 0.576748 -0.249105
0.180243 0.577556 -0.249138
0.177943 0.578352 -0.249171
0.17564 0.579136 -0.249203
0.173332 0.579912 -0.249235
0.171021 0.580676 -0.249266
0.168705 0.581428 -0.249297
0.166387 0.582173 -0.249326
0.164064 0.582905 -0.249355
0.161738 0.583625 -0.249384
0.159409 0.584338 -0.249412
0.157075 0.585037 -0.249439
0.154739 0.585728 -0.249466
0.152399 0.586406 -0.249492
0.150056 0.587073 -0.249518
0.147709 0.587732 -0.249542
0.14536 0.588376 -0.249567
0.143007 0.589011 -0.24959
0.140651 0.589639 -0.249613
0.138292 0.590251 -0.249636
0.13593 0.590854 -0.249658
0.133565 0.591445 -0.249679
0.131197 0.592026 -0.249699
0.128826 0.592598 -0.249719
0.126453 0.593154 -0.249739
0.124077 0.593701 -0.249757
0.121698 0.594241 -0.249775
0.119317 0.594766 -0.249793
0.116932 0.595283 -0.24981
0.114546 0.595786 -0.249826
0.112157 0.596277 -0.249842
0.109766 0.59676 -0.249856
0.107372 0.597231 -0.249871
0.104976 0.597688 -0.249884
0.102578 0.59814 -0.249898
0.100177 0.598574 -0.24991
0.0977753 0.599004 -0.249922
0.0953705 0.599416 -0.249933
0.0929642 0.599819 -0.249944
0.0905559 0.600215 -0.249953
0.0881453 0.600596 -0.249963
0.0857332 0.600964 -0.249971
0.0833195 0.601326 -0.24998
0.0809038 0.601672 -0.249987
0.0784866 0.602009 -0.249994
0.076068 0.602334 -0.25
0.0736475 0.602649 -0.250006
0.0712257 0.602954 -0.25001
0.0688026 0.603245 -0.250015
0.066378 0.603525 -0.250018
0.0639522 0.603794 -0.250021
0.061525 0.60405 -0.250024
0.0590964 0.604299 -0.250026
0.0566669 0.604534 -0.250027
0.0542368 0.604756 -0.250027
0.0518048 0.604971 -0.250027
0.0493724 0.605171 -0.250026
0.0469392 0.605364 -0.250025
0.0445047 0.605542 -0.250023
0.0420695 0.605708 -0.25002
0.0396342 0.605867 -0.250017
0.0371974 0.606011 -0.250013
0.0347604 0.606145 -0.250009
0.0323228 0.606267 -0.250003
0.0298845 0.606377 -0.249997
0.027446 0.606477 -0.249991
0.0250073 0.606565 -0.249984
0.0225677 0.606641 -0.249976
0.0201285 0.606709 -0.249968
0.0176888 0.606763 -0.249959
0.0152487 0.606807 -0.249949
0.0128088 0.606836 -0.249939
0.0103687 0.606855 -0.249928
0.00792862 0.606868 -0.249917
0.00548889 0.606863 -0.249905
0.00304932 0.606855 -0.249894
0.000609436 0.606846 -0.249887
-0.00182983 0.606851 -0.249891
-0.00426941 0.606858 -0.249899
-0.00670929 0.606865 -0.249911
-0.00914948 0.606863 -0.249923
-0.0115892 0.606848 -0.249934
-0.0140292 0.606821 -0.249944
-0.0164691 0.606787 -0.249954
-0.018909 0.606736 -0.249964
-0.0213487 0.606675 -0.249972
-0.0237877 0.606606 -0.24998
-0.026227 0.606523 -0.249987
-0.0286659 0.606431 -0.249994
-0.0311041 0.606323 -0.25
-0.033542 0.606206 -0.250006
-0.0359795 0.606079 -0.250011
-0.038416 0.60594 -0.250015
-0.0408521 0.605789 -0.250019
-0.0432877 0.605627 -0.250022
-0.0457222 0.605454 -0.250024
-0.0481561 0.605271 -0.250026
-0.0505891 0.605073 -0.250027
-0.0530211 0.604866 -0.250027
-0.0554521 0.604648 -0.250027
-0.0578822 0.604416 -0.250026
-0.0603113 0.604175 -0.250025
-0.0627388 0.603926 -0.250023
-0.0651657 0.60366 -0.25002
-0.0675908 0.603386 -0.250017
-0.0700145 0.603101 -0.250013
-0.0724374 0.6028 -0.250008
-0.0748584 0.602495 -0.250003
-0.0772778 0.602173 -0.249997
-0.0796959 0.601843 -0.249991
-0.0821123 0.601501 -0.249983
-0.0845268 0.601145 -0.249976
-0.08694 0.600784 -0.249967
-0.0893512 0.600405 -0.249958
-0.0917606 0.600017 -0.249949
-0.0941681 0.599622 -0.249938
-0.0965735 0.599211 -0.249927
-0.0989769 0.598791 -0.249916
-0.101378 0.598359 -0.249904
-0.103778 0.597915 -0.249891
-0.106175 0.597463 -0.249878
-0.10857 0.596997 -0.249864
-0.110962 0.596519 -0.249849
-0.113352 0.596033 -0.249834
-0.11574 0.595535 -0.249818
-0.118125 0.595027 -0.249801
-0.120508 0.594504 -0.249784
-0.122888 0.593972 -0.249767
-0.125266 0.59343 -0.249748
-0.12764 0.592876 -0.249729
-0.130013 0.592312 -0.249709
-0.132382 0.591738 -0.249689
-0.134748 0.59115 -0.249668
-0.137112 0.590554 -0.249647
-0.139472 0.589946 -0.249625
-0.14183 0.589326 -0.249602
-0.144184 0.588696 -0.249579
-0.146535 0.588054 -0.249555
-0.148884 0.587402 -0.24953
-0.151228 0.586741 -0.249505
-0.15357 0.586067 -0.249479
-0.155908 0.585386 -0.249453
-0.158243 0.58469 -0.249426
-0.160574 0.583982 -0.249398
-0.162902 0.583269 -0.24937
-0.165227 0.582539 -0.249341
-0.167547 0.581802 -0.249312
-0.169864 0.581055 -0.249281
-0.172177 0.580295 -0.249251
-0.174487 0.579524 -0.24922
-0.176792 0.578745 -0.249187
-0.179094 0.577954 -0.249155
-0.181392 0.577156 -0.249122
-0.183685 0.576343 -0.249088
-0.185975 0.575518 -0.249054
-0.188261 0.574687 -0.249019
-0.190614 0.574058 -0.249077
-0.192964 0.573418 -0.249134
-0.195313 0.572771 -0.249191
-0.197658 0.572109 -0.249247
-0.200001 0.571438 -0.249303
-0.202341 0.570754 -0.249358
-0.204678 0.570059 -0.249412
-0.207012 0.569355 -0.249465
-0.209343 0.568638 -0.249518
-0.211672 0.567908 -0.24957
-0.213997 0.56717 -0.249621
-0.216319 0.566421 -0.249671
-0.218638 0.565659 -0.249721
-0.220954 0.564888 -0.24977
-0.223265 0.564102 -0.249819
-0.225574 0.563311 -0.249866
-0.22788 0.562502 -0.249913
-0.230182 0.561685 -0.249959
-0.23248 0.560859 -0.250005
-0.234775 0.560019 -0.250049
-0.237066 0.559167 -0.250094
-0.239353 0.558308 -0.250137
-0.241637 0.557437 -0.250179
-0.243916 0.556553 -0.250221
-0.246192 0.555659 -0.250262
-0.248464 0.554753 -0.250303
-0.250731 0.55384 -0.250342
-0.252995 0.552913 -0.250381
-0.255255 0.551973 -0.250419
-0.25751 0.551028 -0.250456
-0.259761 0.550068 -0.250493
-0.262007 0.549097 -0.250529
-0.26425 0.548118 -0.250564
-0.266487 0.547124 -0.250598
-0.268721 0.546121 -0.250632
-0.27095 0.54511 -0.250665
-0.273173 0.544084 -0.250697
-0.275393 0.543049 -0.250728
-0.277608 0.542004 -0.250759
-0.279817 0.540947 -0.250789
-0.282023 0.53988 -0.250818
-0.284223 0.538806 -0.250846
-0.286418 0.537717 -0.250874
-0.288608 0.536616 -0.2509
-0.290793 0.53551 -0.250926
-0.292973 0.53439 -0.250952
-0.295148 0.533262 -0.250977
-0.297317 0.532119 -0.251
-0.299481 0.530969 -0.251023
-0.30164 0.52981 -0.251045
-0.303793 0.528635 -0.251067
-0.305941 0.527454 -0.251087
-0.308083 0.526262 -0.251107
-0.31022 0.525059 -0.251127
-0.312351 0.523845 -0.251145
-0.314477 0.522624 -0.251163
-0.316597 0.521389 -0.251179
-0.31871 0.520144 -0.251196
-0.320818 0.518894 -0.251211
-0.32292 0.517629 -0.251225
-0.325016 0.516353 -0.251239
