ply
format ascii 1.0
comment Created by Open3D
element vertex 1767
property float x
property float y
property float z
end_header
-5.55205 -9.31141 -0.270356
-5.51592 -9.3359 -0.270423
-4.20498 -11.2818 -0.300259
-4.13914 -11.2432 -0.298783
-4.08365 -11.2313 -0.298031
-4.0335 -11.2338 -0.297664
-3.9874 -11.2474 -0.297597
-3.94375 -11.2679 -0.297718
-3.90457 -11.3015 -0.298189
-3.8751 -11.364 -0.299425
-3.86412 -11.4827 -0.30214
-3.83873 -11.5608 -0.303786
-4.14742 -13.1962 -0.344963
-4.08346 -13.1777 -0.344047
-4.02672 -13.1818 -0.343728
-3.95297 -13.129 -0.341935
-3.89689 -13.1338 -0.341649
-3.89502 -13.3237 -0.346178
-4.44826 -23.9134 -0.606591
-4.34387 -23.8857 -0.605442
-4.42869 -28.2 -0.711881
-4.31971 -28.2464 -0.71261
-4.20736 -28.272 -0.712822
-4.09465 -28.2953 -0.712989
-3.98783 -28.361 -0.714235
-4.55963 -40.7039 -1.02144
-4.39041 -40.6704 -1.02015
-4.58797 -45.961 -1.15189
-4.39217 -45.864 -1.14901
-4.39555 -47.9285 -1.20028
-4.20477 -47.9685 -1.20084
-4.73699 -56.6568 -1.41786
-4.30662 -57.0282 -1.42624
-4.16437 -61.7526 -1.54351
-0.916973 -26.0582 -0.650251
-0.617754 -19.8219 -0.494565
-0.536582 -19.7686 -0.493179
-0.455801 -19.7156 -0.491808
-0.375605 -19.6671 -0.490556
-0.296445 -19.6627 -0.490411
-0.217383 -19.6602 -0.490324
-0.138301 -19.6578 -0.490245
-0.0592578 -19.6553 -0.490173
0.0197461 -19.654 -0.490139
0.0987695 -19.6565 -0.490207
0.177813 -19.659 -0.490283
0.256895 -19.6615 -0.490367
0.335977 -19.6639 -0.490458
0.415586 -19.6886 -0.49111
0.496094 -19.7414 -0.492473
0.577051 -19.7945 -0.493852
0.658496 -19.8479 -0.495246
8.01447 -40.8001 -1.03693
8.21303 -40.9401 -1.04132
3.2591 -14.1665 -0.362519
3.261 -13.9184 -0.356503
3.28467 -13.77 -0.353037
3.29908 -13.5881 -0.348709
3.29906 -13.3537 -0.343032
3.30432 -13.1477 -0.338079
3.31027 -12.951 -0.33336
3.31592 -12.7591 -0.328763
3.32176 -12.5737 -0.324326
3.34207 -12.4477 -0.32142
3.38014 -12.3905 -0.32029
3.43068 -12.3795 -0.32036
3.48123 -12.3685 -0.320434
3.53176 -12.3574 -0.320514
3.5824 -12.3464 -0.320598
3.63299 -12.3353 -0.320686
3.68393 -12.3251 -0.320805
3.73514 -12.3159 -0.320953
3.78762 -12.3104 -0.321205
3.84002 -12.3046 -0.321454
3.89252 -12.2988 -0.321709
3.9451 -12.293 -0.321968
3.99781 -12.2871 -0.322233
4.05348 -12.2901 -0.322736
4.10947 -12.2935 -0.323255
4.16561 -12.2968 -0.323781
4.22191 -12.3002 -0.324313
4.27855 -12.3038 -0.324861
4.33678 -12.3115 -0.325522
4.39523 -12.3192 -0.32619
4.45404 -12.3272 -0.326873
4.51359 -12.3367 -0.327603
4.57346 -12.3462 -0.328341
4.63352 -12.3557 -0.329087
8.00391 -17.2171 -0.473497
8.0691 -17.1765 -0.473265
8.13303 -17.1331 -0.47297
8.20209 -17.1009 -0.472985
8.28482 -17.0968 -0.473789
8.3685 -17.094 -0.47464
8.4557 -17.0977 -0.475684
8.57566 -17.1663 -0.478547
8.38004 10.4404 -0.333865
8.31441 10.4445 -0.332922
8.24633 10.4448 -0.331873
8.18289 10.4505 -0.331008
8.13133 10.4711 -0.330623
8.08871 10.5032 -0.330604
8.05484 10.5466 -0.33095
8.03187 10.6046 -0.331755
8.03098 10.6925 -0.333492
8.01605 10.7624 -0.334666
8.58789 26.0385 -0.683765
8.36281 26.0585 -0.682502
8.23977 26.0344 -0.680998
8.14449 26.0975 -0.681787
7.94727 26.2047 -0.682897
8.40992 32.3602 -0.833817
8.26863 32.35 -0.832693
4.73168 24.6107 -0.624992
4.60754 24.4958 -0.621599
4.49707 24.4494 -0.619956
4.38695 24.4014 -0.618287
4.28027 24.3702 -0.617056
4.17484 24.3439 -0.615961
4.07359 24.3405 -0.615456
3.97301 24.34 -0.615033
3.87324 24.344 -0.614736
3.77559 24.361 -0.614778
3.67941 24.3875 -0.615068
3.58434 24.4227 -0.615588
3.49035 24.4664 -0.616332
3.39508 24.5026 -0.616894
3.30055 24.546 -0.617646
3.2252 24.738 -0.622149
3.18758 25.2406 -0.634459
3.17395 25.9722 -0.652525
3.16918 26.8284 -0.673709
3.49652 30.657 -0.76949
3.37711 30.706 -0.770375
3.2625 30.8026 -0.772464
3.18148 31.2359 -0.783004
3.14719 32.182 -0.806395
3.12105 33.2961 -0.833992
3.82285 42.6264 -1.0673
0.881055 10.2889 -0.257527
0.831758 10.1948 -0.255087
0.783359 10.1029 -0.252706
0.739492 10.0617 -0.251598
0.697656 10.045 -0.251109
0.656016 10.0284 -0.250625
0.614531 10.0118 -0.250148
0.573203 9.99527 -0.249676
0.531992 9.97887 -0.24921
0.490977 9.96246 -0.248749
0.450117 9.94617 -0.248295
0.409375 9.93117 -0.247877
0.36918 9.92398 -0.247659
0.329102 9.92113 -0.247552
0.289141 9.91824 -0.24745
0.249141 9.91539 -0.247352
0.173906 8.24012 -0.205541
0.140078 8.19941 -0.20451
0.106992 8.1909 -0.204285
0.0741406 8.1991 -0.20448
0.0414062 8.23769 -0.205437
0.00828125 8.25711 -0.20592
-0.0248828 8.24668 -0.205659
-0.0580078 8.24648 -0.205659
-0.0912891 8.25664 -0.20592
-0.124883 8.28145 -0.206549
-0.157852 8.26449 -0.20614
-0.19082 8.25336 -0.205881
-0.224219 8.26059 -0.206082
-0.259062 8.31184 -0.207385
-0.34918 9.92258 -0.247606
-0.389219 9.92559 -0.247719
-0.429766 9.93816 -0.248074
-0.470586 9.95449 -0.248525
-0.511523 9.97082 -0.248983
-0.552578 9.98723 -0.249446
-0.593867 10.0037 -0.249915
-0.635273 10.0202 -0.25039
-0.676875 10.0369 -0.25087
-0.718633 10.0535 -0.251357
-0.760469 10.0702 -0.251849
-0.8075 10.1496 -0.253913
-0.856367 10.2424 -0.25632
-0.910469 10.3865 -0.260015
-4.20125 45.8102 -1.14723
-4.42523 46.2087 -1.15764
-5.58105 55.9089 -1.40121
-5.8198 56.0217 -1.40461
-6.04449 55.9928 -1.40448
-6.27793 56.0433 -1.40637
-6.52547 56.2098 -1.4112
-3.96094 25.2214 -0.636692
-4.06777 25.2392 -0.637547
-4.17141 25.236 -0.637885
-4.2782 25.2508 -0.638688
-4.42102 25.4718 -0.644722
-3.94371 20.2922 -0.515524
-4.02516 20.2758 -0.515513
-4.10996 20.2757 -0.515927
-4.20449 20.3221 -0.517532
-4.30016 20.3714 -0.519224
-13.7477 3.97402 -0.356882
-13.6293 3.88051 -0.353401
-13.5986 3.81273 -0.352205
-13.5906 3.7516 -0.351604
-13.5974 3.69469 -0.351392
-13.608 3.63895 -0.351286
-13.6187 3.58316 -0.351186
-13.6293 3.52742 -0.351091
-13.6379 3.47125 -0.350952
-13.6478 3.41543 -0.35085
-13.6687 3.3623 -0.351037
-13.7014 3.31195 -0.351531
-13.7538 3.26617 -0.352536
-13.853 3.23102 -0.354745
-35.4658 4.1534 -0.890504
-32.4524 3.66832 -0.814464
-43.9617 4.07629 -1.10104
-43.8611 3.88918 -1.09812
-47.8197 3.85297 -1.19641
-47.8249 3.65992 -1.19616
-57.6188 4.17652 -1.44069
-57.4839 3.93453 -1.43691
-59.7427 3.84789 -1.49297
-8.78758 -0.0353125 -0.316622
-8.55105 -0.0687109 -0.308105
-8.5252 -0.102812 -0.307187
-8.50398 -0.136758 -0.30644
-8.4873 -0.170586 -0.30586
-8.47098 -0.204375 -0.3053
-8.45723 -0.238047 -0.304836
-8.44348 -0.271641 -0.304377
-8.42977 -0.305117 -0.303924
-8.41605 -0.338477 -0.303477
-8.40238 -0.371758 -0.303037
-8.39297 -0.405156 -0.302752
-8.38664 -0.438633 -0.302584
-8.38023 -0.472148 -0.30242
-8.37383 -0.505508 -0.302261
-8.36742 -0.538906 -0.302105
-8.36074 -0.572266 -0.301944
-8.3541 -0.605547 -0.301788
-8.34738 -0.638789 -0.301637
-8.34066 -0.672031 -0.301491
-8.3427 -0.705977 -0.301664
-8.34906 -0.740312 -0.301998
-8.35539 -0.774727 -0.302337
-8.36172 -0.809219 -0.302681
-8.36793 -0.843789 -0.303027
-8.37395 -0.878437 -0.30337
-8.37996 -0.913125 -0.303718
-8.38598 -0.947891 -0.304072
-8.3925 -0.982852 -0.304449
-8.40664 -1.01879 -0.305108
-8.42082 -1.05484 -0.305775
-8.43504 -1.09109 -0.306448
-8.44934 -1.1275 -0.307129
-8.46387 -1.1641 -0.307825
-8.48168 -1.20129 -0.308645
-8.49949 -1.23867 -0.309475
-8.5259 -1.27758 -0.31062
-8.55527 -1.31711 -0.31188
-32.5367 -5.14324 -1.18686
-32.5392 -5.27781 -1.18772
-32.5496 -5.41387 -1.18888
-32.6053 -5.55793 -1.19172
-32.8076 -5.72824 -1.19995
-15.7952 -3.81809 -0.585497
-15.7531 -3.875 -0.584506
-15.7516 -3.94191 -0.585036
-15.8502 -4.03434 -0.589297
-15.6419 -4.04832 -0.58215
-15.4384 -4.06195 -0.575181
-15.1851 -4.06066 -0.566347
-14.8742 -4.04164 -0.555354
-14.6774 -4.0516 -0.54861
-14.4729 -4.05785 -0.54157
-14.2725 -4.06363 -0.534678
-14.0804 -4.0702 -0.528092
-13.9142 -4.08281 -0.522468
-13.7401 -4.09176 -0.516545
-13.6656 -4.12949 -0.514368
-13.6398 -4.1816 -0.514023
-13.63 -4.23859 -0.514289
-13.6218 -4.29617 -0.514627
-13.6146 -4.35418 -0.515014
-13.6075 -4.4123 -0.515413
-13.6006 -4.47055 -0.515826
-13.5945 -4.52918 -0.516281
-13.5943 -4.58988 -0.51697
-13.5922 -4.65016 -0.517599
-13.5911 -4.7109 -0.518273
-13.591 -4.77211 -0.518996
-13.589 -4.83285 -0.519657
-13.5933 -4.89605 -0.52057
-13.5986 -4.95977 -0.521531
-13.6041 -5.02383 -0.522513
-13.61 -5.08832 -0.523521
-13.6171 -5.15348 -0.52459
-13.6297 -5.22094 -0.525879
-18.812 -8.53926 -0.744362
-18.8075 -8.62855 -0.74555
-18.7636 -8.69988 -0.74519
-18.736 -8.77879 -0.745491
-18.7545 -8.87961 -0.747642
-18.7484 -8.9691 -0.748829
-18.1511 -8.7732 -0.726375
-18.0765 -8.82699 -0.724804
-18.0095 -8.8841 -0.723542
-18.0056 -8.97234 -0.724831
-17.9405 -9.03008 -0.723665
-17.9625 -9.13184 -0.726026
-18.0166 -9.2507 -0.729713
-6.02646 -9.24121 -0.397506
-5.97598 -9.24488 -0.396627
-5.83676 -9.1907 -0.392278
-5.7798 -9.18234 -0.390926
-5.73312 -9.18992 -0.390265
-5.69316 -9.20809 -0.390062
-5.65906 -9.23578 -0.390268
-5.6315 -9.27426 -0.390934
-5.61357 -9.32906 -0.392291
-5.56279 -9.32934 -0.391358
-5.51613 -9.33629 -0.390715
-4.34469 -11.3763 -0.438767
-4.27469 -11.3295 -0.436292
-4.21715 -11.3145 -0.435057
-4.15475 -11.2855 -0.433299
-4.09547 -11.2639 -0.431834
-4.044 -11.2631 -0.431178
-3.9909 -11.2573 -0.430337
-3.93883 -11.2538 -0.429596
-3.89328 -11.2688 -0.429567
-3.85414 -11.3026 -0.430261
-3.83525 -11.3969 -0.433261
-3.80451 -11.4577 -0.434986
-3.77215 -11.5148 -0.436575
-3.76639 -11.6554 -0.441331
-4.29541 -13.4775 -0.509664
-4.15014 -13.2049 -0.49872
-4.08457 -13.1813 -0.497204
-4.02738 -13.1839 -0.496691
-3.97592 -13.2052 -0.496885
-3.89105 -13.1141 -0.492866
-3.89926 -13.3381 -0.500692
-4.44582 -23.9002 -0.875901
-4.34629 -23.8991 -0.875213
-4.31885 -28.2408 -1.02935
-4.20805 -28.2765 -1.03003
-4.09709 -28.3123 -1.03073
-0.761875 -19.4287 -0.700558
-0.683594 -19.4263 -0.700368
-0.605352 -19.4239 -0.700188
-0.527148 -19.4215 -0.700019
-0.448301 -19.3912 -0.698856
-0.369766 -19.3616 -0.69773
-0.291562 -19.3389 -0.696866
-0.213555 -19.3163 -0.696014
-0.135762 -19.2937 -0.695175
-0.0580859 -19.2627 -0.694045
0.0193164 -19.2225 -0.692593
0.096875 -19.2821 -0.694749
0.17459 -19.3047 -0.695581
0.25252 -19.3273 -0.696427
0.330625 -19.3499 -0.697285
0.408926 -19.3739 -0.698202
0.487695 -19.4075 -0.699482
0.566211 -19.4227 -0.700103
0.644434 -19.4251 -0.700278
0.722734 -19.4275 -0.700463
8.00758 -40.7649 -1.49684
2.92482 -14.5796 -0.535775
2.95523 -14.4301 -0.530711
3.01572 -14.4301 -0.531153
3.07631 -14.4301 -0.531604
3.15682 -14.5213 -0.535425
3.1626 -14.2712 -0.52667
3.15939 -13.9903 -0.516767
3.17188 -13.7874 -0.509739
3.18748 -13.6046 -0.503451
3.19082 -13.3765 -0.495482
3.19719 -13.1685 -0.48825
3.20432 -12.9702 -0.48137
3.20857 -12.7668 -0.474296
3.21332 -12.5717 -0.467523
3.23385 -12.4433 -0.463229
3.24322 -12.2764 -0.457499
3.27246 -12.1884 -0.454705
3.30131 -12.1015 -0.451954
3.32879 -12.0118 -0.4491
3.36338 -11.9498 -0.447282
3.39875 -11.8918 -0.445622
3.44297 -11.866 -0.445167
3.48926 -11.8473 -0.444989
3.53475 -11.8261 -0.444725
3.57934 -11.8021 -0.444361
3.62385 -11.7782 -0.444004
3.66824 -11.7543 -0.443654
3.7126 -11.7303 -0.443309
3.75832 -11.7109 -0.443145
3.80668 -11.6998 -0.443297
3.85535 -11.6893 -0.443487
3.90398 -11.6789 -0.443683
3.95273 -11.6685 -0.443887
4.00176 -11.6587 -0.444123
4.05816 -11.6701 -0.445174
4.11484 -11.6815 -0.446237
4.17184 -11.693 -0.447312
4.22887 -11.704 -0.448382
4.28758 -11.7189 -0.449607
4.34672 -11.7342 -0.45086
4.40619 -11.7495 -0.452128
4.46603 -11.765 -0.45341
4.5282 -11.7857 -0.454908
4.63385 -11.9174 -0.460706
7.9724 -17.1494 -0.681403
8.06473 -17.1671 -0.683388
8.15133 -17.1717 -0.684869
8.21879 -17.1356 -0.684744
8.3065 -17.1415 -0.686309
8.38475 -17.1271 -0.687077
8.48551 -17.158 -0.689677
8.58701 -17.189 -0.692306
8.41207 10.3945 -0.481795
8.33777 10.3878 -0.479927
8.27941 10.4004 -0.478969
8.23078 10.4251 -0.478578
8.19035 10.4601 -0.478667
8.15824 10.5058 -0.479254
8.13406 10.562 -0.480325
8.11063 10.6197 -0.481459
8.07133 10.6567 -0.481665
8.02477 10.6843 -0.481446
8.00074 10.7419 -0.48259
8.35305 26.0282 -0.984912
8.24625 26.0549 -0.984661
8.14406 26.0963 -0.984978
8.42453 32.4162 -1.20676
8.28273 32.4052 -1.2051
4.72621 23.5591 -0.865752
4.60148 23.4254 -0.860151
4.49789 23.3948 -0.85836
4.39145 23.3471 -0.855952
4.29074 23.3275 -0.854594
4.19312 23.3233 -0.853818
4.09477 23.314 -0.852865
3.99648 23.304 -0.851906
3.90211 23.3157 -0.851759
3.8077 23.3272 -0.851608
3.71242 23.3333 -0.85128
3.61875 23.349 -0.851314
3.5291 23.3912 -0.85233
3.4377 23.4237 -0.853002
3.34805 23.469 -0.854155
3.26672 23.5762 -0.85757
3.18793 23.7082 -0.861899
3.12887 23.9988 -0.872002
3.11305 24.6506 -0.895221
3.1007 25.373 -0.920995
3.10215 26.2611 -0.952774
3.0902 27.094 -0.982531
3.30824 30.0797 -1.09031
3.19586 30.1737 -1.09325
3.09031 30.3409 -1.09885
3.0334 31.0184 -1.12293
3.03402 32.3676 -1.17133
0.926797 10.3346 -0.373851
0.874922 10.2171 -0.36947
0.825352 10.1168 -0.365722
0.779258 10.05 -0.36319
0.7375 10.0348 -0.362533
0.695898 10.0193 -0.361869
0.654336 10.0024 -0.361162
0.61293 9.98566 -0.360464
0.57168 9.96895 -0.359774
0.530586 9.9523 -0.359092
0.489648 9.9357 -0.358419
0.448906 9.9191 -0.357754
0.408281 9.90258 -0.357097
0.368164 9.89711 -0.356841
0.328281 9.89586 -0.356746
0.288398 9.89352 -0.356618
0.208438 8.295 -0.298964
0.17418 8.2525 -0.297407
0.140742 8.2375 -0.296842
0.107617 8.23984 -0.296909
0.0744531 8.23055 -0.296561
0.0412109 8.2066 -0.295688
0.00820312 8.19254 -0.29518
-0.0246875 8.1859 -0.294941
-0.0576172 8.18574 -0.294942
-0.0905859 8.19203 -0.295179
-0.12375 8.2057 -0.295687
-0.157148 8.22934 -0.29656
-0.19125 8.27184 -0.298115
-0.225117 8.29414 -0.29895
-0.259727 8.33332 -0.300397
-0.348281 9.89656 -0.356796
-0.388125 9.8977 -0.356889
-0.428594 9.91105 -0.35743
-0.469297 9.92754 -0.358091
-0.510156 9.94418 -0.35876
-0.551172 9.96078 -0.359438
-0.592344 9.97746 -0.360124
-0.633633 9.99426 -0.360818
-0.675117 10.0111 -0.36152
-0.716719 10.0274 -0.362213
-0.758398 10.0425 -0.362866
-0.801055 10.0684 -0.363914
-0.850117 10.1677 -0.367622
-0.900625 10.2745 -0.371613
-0.959922 10.4668 -0.378704
-4.06496 25.2217 -0.920473
-4.16773 25.214 -0.920794
-4.28324 25.2807 -0.923852
-3.94242 20.2855 -0.744566
-4.0293 20.2964 -0.745558
-4.11152 20.2835 -0.745682
-4.21035 20.3504 -0.748755
-4.30051 20.3731 -0.750223
-13.6298 3.93996 -0.51119
-13.5775 3.8657 -0.50864
-13.5563 3.80086 -0.50727
-13.5518 3.7409 -0.506536
-13.5596 3.68445 -0.506271
-13.5706 3.62895 -0.506133
-13.5816 3.57344 -0.506004
-13.5927 3.51797 -0.505883
-13.6036 3.46254 -0.50577
-13.6146 3.40711 -0.505667
-13.6322 3.35332 -0.505815
-13.6621 3.30254 -0.506426
-13.7076 3.25523 -0.507622
-13.779 3.21375 -0.509786
-35.5701 4.16563 -1.29036
-32.4837 3.67188 -1.17785
-8.50484 -3.90625e-05 -0.400843
-8.34383 -0.0335156 -0.393256
-8.29211 -0.0666797 -0.390827
-8.27359 -0.0997656 -0.389969
-8.25773 -0.132812 -0.389246
-8.24195 -0.165664 -0.38853
-8.22621 -0.198437 -0.387822
-8.21055 -0.231094 -0.387123
-8.19488 -0.263633 -0.386432
-8.17926 -0.296055 -0.385748
-8.16367 -0.328359 -0.385072
-8.15016 -0.360625 -0.384499
-8.1434 -0.393125 -0.384252
-8.13734 -0.425625 -0.384045
-8.13129 -0.458086 -0.383843
-8.12523 -0.490508 -0.383647
-8.11914 -0.52293 -0.383457
-8.11309 -0.555313 -0.383272
-8.10703 -0.587617 -0.383093
-8.1009 -0.619961 -0.382919
-8.09477 -0.652227 -0.382751
-8.08918 -0.684492 -0.382612
-8.09477 -0.717773 -0.383011
-8.10031 -0.751094 -0.383414
-8.1059 -0.784492 -0.383823
-8.11148 -0.81793 -0.384239
-8.11703 -0.851445 -0.384661
-8.12258 -0.885078 -0.38509
-8.12813 -0.91875 -0.385524
-8.13363 -0.9525 -0.385966
-8.13918 -0.986367 -0.386413
-8.14871 -1.02074 -0.387058
-8.16457 -1.05609 -0.38801
-8.18098 -1.09168 -0.388995
-8.19746 -1.12742 -0.389991
-8.21398 -1.16336 -0.390997
-8.23063 -1.19945 -0.392013
-8.24727 -1.23582 -0.393041
-8.26402 -1.2723 -0.394079
-8.28598 -1.3098 -0.395376
-32.923 -5.47594 -1.57301
-32.8886 -5.60621 -1.57243
-16.5169 -3.92238 -0.800106
-16.0981 -3.89129 -0.780569
-15.8499 -3.89887 -0.769293
-15.614 -3.90746 -0.758596
-15.4109 -3.9225 -0.749489
-15.1655 -3.92504 -0.738316
-14.9383 -3.93039 -0.72802
-14.7312 -3.93926 -0.718691
-14.5376 -3.9502 -0.710016
-14.3461 -3.96012 -0.701432
-14.1494 -3.96711 -0.692589
-13.9738 -3.97855 -0.684773
-13.7771 -3.98246 -0.675911
-13.6386 -4.00195 -0.669902
-13.5149 -4.02473 -0.664613
-13.4492 -4.06406 -0.662183
-13.42 -4.11422 -0.661554
-13.4079 -4.16953 -0.661777
-13.3957 -4.22484 -0.66201
-13.3853 -4.28086 -0.662342
-13.3788 -4.33812 -0.662876
-13.3723 -4.39551 -0.663423
-13.3657 -4.45293 -0.663979
-13.3604 -4.51094 -0.664612
-13.3606 -4.5709 -0.665529
-13.3614 -4.63125 -0.666492
-13.3617 -4.6916 -0.667441
-13.3594 -4.75121 -0.668277
-13.3571 -4.81098 -0.669124
-13.3569 -4.87164 -0.670089
-13.3618 -4.93437 -0.671325
-13.3673 -4.99758 -0.672607
-13.3729 -5.06102 -0.673904
-13.3758 -5.12371 -0.675084
-13.3879 -5.19008 -0.67674
-13.4 -5.25688 -0.678415
-13.4597 -5.34285 -0.682522
-18.8686 -8.6566 -0.97842
-18.7784 -8.70676 -0.975549
-18.7495 -8.78512 -0.975877
-18.7896 -8.89621 -0.979816
-18.8173 -9.00211 -0.98314
-18.1342 -8.85516 -0.951138
-18.0286 -8.89352 -0.947465
-18.0164 -8.97777 -0.948717
-17.9631 -9.04152 -0.947816
-6.02078 -9.23254 -0.519489
-5.99146 -9.26875 -0.520168
-5.84867 -9.20945 -0.514184
-5.78459 -9.18996 -0.511793
-5.73531 -9.19344 -0.510698
-5.69389 -9.2093 -0.510302
-5.65879 -9.23535 -0.510482
-5.63045 -9.2725 -0.511282
-5.61191 -9.32633 -0.513001
-5.521 -9.34445 -0.511539
-5.48596 -9.37098 -0.511781
-4.35055 -11.3916 -0.574719
-4.27664 -11.3346 -0.570972
-4.21832 -11.3176 -0.569255
-4.16633 -11.317 -0.568378
-4.11881 -11.328 -0.568099
-4.06998 -11.3355 -0.567647
-4.01728 -11.3317 -0.566645
-3.96227 -11.3209 -0.565303
-3.91324 -11.3267 -0.564801
-3.89047 -11.4091 -0.568125
-3.84846 -11.4362 -0.568699
-3.81117 -11.4778 -0.570003
-3.7823 -11.5458 -0.57262
-4.30006 -13.4921 -0.667412
-4.14844 -13.1995 -0.652106
-4.08396 -13.1794 -0.650296
-4.02799 -13.1859 -0.649813
-3.97551 -13.204 -0.649911
-3.89469 -13.1264 -0.645319
-3.83557 -13.1203 -0.644254
-4.45027 -23.9241 -1.14691
-4.35152 -23.928 -1.14625
-4.3277 -28.2986 -1.34925
-4.20549 -28.2591 -1.34655
-4.09148 -28.2736 -1.34644
-0.79709 -18.433 -0.86958
-0.721543 -18.3995 -0.867857
-0.646309 -18.3662 -0.866152
-0.571582 -18.3406 -0.864832
-0.497637 -18.3343 -0.864433
-0.42373 -18.328 -0.864047
-0.349941 -18.3234 -0.863758
-0.276191 -18.3193 -0.863503
-0.202422 -18.3099 -0.863017
-0.128555 -18.2709 -0.861145
-0.0549805 -18.2319 -0.859292
0.0183203 -18.2119 -0.858344
0.0916797 -18.2508 -0.860188
0.16541 -18.2898 -0.862052
0.239297 -18.3171 -0.863378
0.313047 -18.3213 -0.863627
0.386816 -18.3255 -0.86389
0.460664 -18.3311 -0.864237
0.53459 -18.3375 -0.86463
0.60877 -18.3491 -0.865288
0.683867 -18.3825 -0.866985
0.759238 -18.4159 -0.868699
2.99852 -15.5961 -0.748525
3.00838 -15.3152 -0.735613
3.02406 -15.0744 -0.724626
3.03432 -14.8164 -0.712804
3.04492 -14.5698 -0.701523
3.05348 -14.323 -0.690229
3.06158 -14.0832 -0.679257
3.06973 -13.8521 -0.668705
3.07641 -13.6228 -0.658224
3.08252 -13.399 -0.648004
3.09053 -13.1907 -0.638528
3.09803 -12.9876 -0.629292
3.09459 -12.7458 -0.618176
3.096 -12.5318 -0.608392
3.09426 -12.3119 -0.598318
3.12361 -12.2207 -0.594493
3.14838 -12.1145 -0.589933
3.1743 -12.0155 -0.58573
3.2067 -11.9436 -0.582848
3.2425 -11.8859 -0.580666
3.27943 -11.8337 -0.578756
3.31738 -11.7864 -0.57709
3.35734 -11.747 -0.575817
3.40219 -11.7254 -0.575422
3.44703 -11.7037 -0.575035
3.49363 -11.6886 -0.574978
3.54094 -11.6756 -0.575035
3.58824 -11.6627 -0.5751
3.63633 -11.6519 -0.575287
3.68551 -11.6447 -0.57566
3.73477 -11.6376 -0.576043
3.7841 -11.6304 -0.576435
3.83242 -11.62 -0.57668
3.88086 -11.6096 -0.576932
3.93137 -11.6054 -0.577504
3.98238 -11.6023 -0.578142
4.0348 -11.6029 -0.578975
4.08801 -11.6054 -0.579917
4.14301 -11.6123 -0.58109
4.19977 -11.6236 -0.582493
4.25574 -11.6319 -0.583763
4.31148 -11.6391 -0.584989
4.3675 -11.6463 -0.586229
4.42516 -11.6573 -0.587672
4.48465 -11.6723 -0.589337
4.54488 -11.6886 -0.591074
4.61109 -11.7193 -0.593556
4.68043 -11.7566 -0.596396
4.79152 -11.8962 -0.604449
8.15807 -17.1859 -0.896615
8.2207 -17.1397 -0.895921
8.30752 -17.1436 -0.897867
8.39277 -17.1435 -0.899621
8.39094 10.454 -0.631792
8.32027 10.4518 -0.629631
8.2682 10.4725 -0.628871
8.22824 10.5085 -0.629039
8.17047 10.5215 -0.627849
8.1193 10.5429 -0.627171
8.07723 10.5759 -0.627202
8.04418 10.6209 -0.627946
8.02297 10.6819 -0.629636
8.03078 10.7821 -0.633642
8.37488 26.0962 -1.29172
8.16309 26.1571 -1.29145
4.79191 23.3986 -1.12569
4.66465 23.2524 -1.11774
4.55785 23.2034 -1.1145
4.45187 23.1555 -1.11133
4.34832 23.1178 -1.10867
4.25133 23.1132 -1.10762
4.15453 23.1086 -1.10659
4.05789 23.104 -1.10558
3.96203 23.103 -1.10476
3.8673 23.1079 -1.10424
3.77266 23.1127 -1.10374
3.67809 23.1176 -1.10326
3.58605 23.1379 -1.10353
3.49699 23.1786 -1.10479
3.4077 23.2193 -1.10607
3.31824 23.26 -1.10737
3.23672 23.3597 -1.11148
3.15781 23.4845 -1.11681
3.09723 23.7565 -1.12915
3.10648 24.5983 -1.16855
3.09273 25.3077 -1.20165
3.08309 26.0997 -1.23865
3.08988 27.0916 -1.28513
3.30145 30.018 -1.42331
3.1848 30.0691 -1.42511
3.07977 30.2371 -1.43248
3.03531 31.0384 -1.46985
0.973711 10.3877 -0.491728
0.920547 10.2647 -0.485727
0.868789 10.1462 -0.47995
0.819687 10.0474 -0.475115
0.777617 10.029 -0.474093
0.735977 10.0139 -0.473238
0.694492 9.99887 -0.472393
0.653125 9.98394 -0.471558
0.611875 9.96906 -0.470735
0.57082 9.95395 -0.469911
0.529805 9.93738 -0.469023
0.488945 9.92078 -0.468145
0.448242 9.9043 -0.467277
0.407617 9.88789 -0.466421
0.367617 9.88195 -0.466068
0.327812 9.88086 -0.465951
0.243437 8.35117 -0.393766
0.208867 8.31109 -0.391834
0.175117 8.29707 -0.391136
0.141836 8.30086 -0.391285
0.107969 8.26441 -0.389543
0.074375 8.2257 -0.387701
0.0412109 8.20281 -0.386613
0.00820312 8.18934 -0.385971
-0.0246875 8.18293 -0.385671
-0.0575781 8.18289 -0.385677
-0.0905469 8.18922 -0.385989
-0.123672 8.20285 -0.386651
-0.157148 8.22625 -0.387781
-0.191133 8.26727 -0.389747
-0.227383 8.37621 -0.394925
-0.261914 8.40394 -0.396278
-0.347734 9.88144 -0.466009
-0.387578 9.88254 -0.466131
-0.427969 9.89625 -0.466856
-0.468555 9.91269 -0.467718
-0.509375 9.92926 -0.46859
-0.550312 9.94582 -0.469474
-0.591406 9.9618 -0.470334
-0.6325 9.9766 -0.471152
-0.673828 9.99156 -0.471981
-0.715234 10.0066 -0.472821
-0.756836 10.0216 -0.473671
-0.798555 10.0367 -0.474532
-0.844258 10.0975 -0.477567
-0.894609 10.2055 -0.482839
-0.947109 10.327 -0.488764
-1.0125 10.5722 -0.500557
-3.97656 25.3209 -1.20802
-4.06277 25.2084 -1.20343
-4.16699 25.2093 -1.20426
-4.28809 25.3091 -1.20984
-3.96605 20.407 -0.979799
-4.03305 20.3154 -0.97617
-4.11543 20.3027 -0.976347
-4.2191 20.3927 -0.981485
-13.6807 3.89512 -0.670408
-13.6291 3.82129 -0.667123
-13.6155 3.75852 -0.665715
-13.6211 3.70117 -0.665252
-13.6326 3.64547 -0.665093
-13.6441 3.58988 -0.664945
-13.6556 3.53426 -0.664808
-13.6578 3.47633 -0.664229
-13.6676 3.42035 -0.664031
-13.6883 3.36715 -0.664376
-13.7211 3.31676 -0.665317
-13.7729 3.2707 -0.667183
-13.8757 3.23629 -0.671528
-32.4071 3.6632 -1.5371
-8.18453 3.90625e-05 -0.476694
-8.10074 -0.0325781 -0.471817
-8.07645 -0.0648828 -0.470413
-8.06715 -0.0972656 -0.46989
-8.05688 -0.129531 -0.46932
-8.04664 -0.161719 -0.468758
-8.03644 -0.193867 -0.468204
-8.02625 -0.225898 -0.467658
-8.01602 -0.257891 -0.46712
-8.00582 -0.289766 -0.46659
-7.99566 -0.321602 -0.466068
-7.98644 -0.353359 -0.46561
-7.98137 -0.385312 -0.4654
-7.97625 -0.417227 -0.465198
-7.97121 -0.449062 -0.465003
-7.96609 -0.480898 -0.464815
-7.96152 -0.512773 -0.464664
-7.95695 -0.544609 -0.464522
-7.95238 -0.576445 -0.464388
-7.94781 -0.608203 -0.464259
-7.9432 -0.639961 -0.464138
-7.93863 -0.671719 -0.464022
-7.93965 -0.704023 -0.464246
-7.94383 -0.736602 -0.464659
-7.94797 -0.769219 -0.465078
-7.95211 -0.801836 -0.465506
-7.95625 -0.834609 -0.465941
-7.96039 -0.867383 -0.466384
-7.96492 -0.900312 -0.466856
-7.96961 -0.93332 -0.467349
-7.97437 -0.966367 -0.46785
-7.97906 -0.999492 -0.468358
-7.98605 -1.03301 -0.46901
-7.99641 -1.06707 -0.469865
-8.0068 -1.10121 -0.470729
-8.01715 -1.13551 -0.471604
-8.02758 -1.16988 -0.47249
-8.03797 -1.20445 -0.473385
-8.0484 -1.23914 -0.47429
-8.05887 -1.27391 -0.475201
-8.06738 -1.30852 -0.476011
-8.12965 -1.35215 -0.480002
-16.7324 -3.83168 -0.999777
-16.4761 -3.84273 -0.985375
-16.2237 -3.85273 -0.971198
-15.9475 -3.85496 -0.955588
-15.6746 -3.8557 -0.940153
-15.422 -3.85938 -0.925925
-15.1526 -3.8568 -0.910674
-14.9 -3.85633 -0.896417
-14.6568 -3.85629 -0.882712
-14.4426 -3.86211 -0.870743
-14.2449 -3.87063 -0.859753
-14.0544 -3.87965 -0.849189
-13.8747 -3.89012 -0.83927
-13.7153 -3.90496 -0.830569
-13.5733 -3.92359 -0.822921
-13.4391 -3.94336 -0.81574
-13.3937 -3.98859 -0.813949
-13.3485 -4.03363 -0.812178
-13.3178 -4.08285 -0.811304
-13.3063 -4.13797 -0.811612
-13.2971 -4.19379 -0.812073
-13.2879 -4.24969 -0.812548
-13.283 -4.30703 -0.813298
-13.2795 -4.365 -0.814156
-13.276 -4.42305 -0.815022
-13.2724 -4.48121 -0.815904
-13.2701 -4.53992 -0.816876
-13.2687 -4.5991 -0.81792
-13.2673 -4.65844 -0.818982
-13.2676 -4.71852 -0.82016
-13.2689 -4.77918 -0.821422
-13.2701 -4.84 -0.822701
-13.2731 -4.90164 -0.824104
-13.2768 -4.96371 -0.825558
-13.2804 -5.02602 -0.827033
-13.2837 -5.0884 -0.828507
-13.2931 -5.15336 -0.83038
-13.3041 -5.2193 -0.832372
-13.3183 -5.28672 -0.83458
-13.392 -5.3784 -0.840548
-18.839 -8.64305 -1.20721
-18.7634 -8.6998 -1.20459
-18.7412 -8.78121 -1.20543
-18.8027 -8.90238 -1.21168
-18.035 -8.89668 -1.17127
-17.9727 -9.04633 -1.17191
-6.06676 -9.22176 -0.642916
-6.02617 -9.24082 -0.642548
-5.84316 -9.20074 -0.634816
-5.77941 -9.18168 -0.631893
-5.73057 -9.18586 -0.630587
-5.68967 -9.20246 -0.630151
-5.65529 -9.22965 -0.630451
-5.62816 -9.26875 -0.631573
-5.61281 -9.32781 -0.634053
-5.54375 -9.38297 -0.634754
-5.48736 -9.37336 -0.632608
-5.46504 -9.42191 -0.634395
-4.26781 -11.4505 -0.71173
-4.16363 -11.3095 -0.701926
-4.09937 -11.2746 -0.698733
-4.04428 -11.2639 -0.697053
-3.99422 -11.2666 -0.696225
-3.94805 -11.2802 -0.696077
-3.90553 -11.3042 -0.696581
-3.86695 -11.3401 -0.697832
-3.83166 -11.3862 -0.699714
-3.8184 -11.4996 -0.70573
-4.12793 -13.3212 -0.81227
-4.0349 -13.2086 -0.804405
-3.9765 -13.2072 -0.80334
-3.92922 -13.2428 -0.804537
-3.84072 -13.138 -0.797225
-4.46119 -23.9829 -1.42081
-4.36434 -23.9984 -1.42067
-0.854824 -18.0835 -1.05442
-0.774961 -17.9214 -1.04478
-0.7025 -17.9142 -1.04418
-0.630117 -17.9061 -1.04355
-0.557813 -17.8979 -1.04294
-0.485566 -17.8898 -1.04234
-0.413418 -17.8817 -1.04177
-0.341445 -17.8792 -1.04154
-0.269531 -17.8778 -1.04138
-0.197637 -17.8771 -1.04128
-0.125781 -17.8764 -1.0412
-0.0539062 -17.8756 -1.04114
0.0179492 -17.8753 -1.04112
0.0898047 -17.876 -1.04117
0.16168 -17.8767 -1.04124
0.233574 -17.8774 -1.04133
0.305488 -17.8783 -1.04144
0.377402 -17.8801 -1.04163
0.449453 -17.8856 -1.04205
0.521621 -17.8937 -1.04264
0.593906 -17.9019 -1.04324
0.666289 -17.91 -1.04386
0.73873 -17.9179 -1.04448
0.813242 -17.9704 -1.04773
2.96055 -15.7397 -0.932809
2.98453 -15.5233 -0.920689
2.99064 -15.2248 -0.903689
2.99656 -14.9372 -0.887326
3.00369 -14.6668 -0.87197
3.0143 -14.4234 -0.858213
3.02445 -14.187 -0.844865
3.03387 -13.9556 -0.831806
3.04287 -13.731 -0.819142
3.0484 -13.4987 -0.806007
3.05449 -13.2771 -0.793504
3.06096 -13.0647 -0.78154
3.03889 -12.7396 -0.762813
3.00398 -12.3727 -0.741564
3.01258 -12.1941 -0.731576
3.02418 -12.0331 -0.722645
3.05123 -11.9375 -0.717634
3.09 -11.8898 -0.715507
3.12854 -11.8424 -0.713401
3.16687 -11.7952 -0.71132
3.20496 -11.7482 -0.709262
3.24512 -11.7099 -0.707729
3.2898 -11.6884 -0.707223
3.33445 -11.667 -0.70673
3.37918 -11.646 -0.706279
3.42383 -11.6251 -0.70584
3.4684 -11.6041 -0.705405
3.51691 -11.5963 -0.705787
3.5657 -11.5892 -0.706222
3.61453 -11.5821 -0.70667
3.66344 -11.575 -0.707129
3.71242 -11.5679 -0.707602
3.76145 -11.5608 -0.708085
3.8109 -11.5546 -0.708637
3.86145 -11.5516 -0.709399
3.91211 -11.5486 -0.710173
3.96293 -11.5455 -0.71096
4.01426 -11.5439 -0.711846
4.06715 -11.546 -0.71298
4.12016 -11.5481 -0.714126
4.17328 -11.5502 -0.715288
4.22742 -11.5545 -0.7166
4.28305 -11.5623 -0.718149
4.33867 -11.5695 -0.719669
4.39453 -11.5766 -0.721206
4.45059 -11.5838 -0.722761
4.50691 -11.5909 -0.724334
4.56914 -11.6125 -0.726822
4.635 -11.6424 -0.729855
4.70141 -11.6725 -0.732917
4.76836 -11.7027 -0.736016
4.87508 -11.8283 -0.745142
8.17447 -17.2205 -1.11025
8.23445 -17.1683 -1.10901
8.33215 -17.1944 -1.11285
8.39645 -17.1511 -1.11222
8.53871 10.5509 -0.790546
8.43297 10.5065 -0.784667
8.36539 10.5085 -0.7823
8.2918 10.5023 -0.779358
8.21566 10.4925 -0.776165
8.15613 10.503 -0.77452
8.10641 10.5261 -0.77381
8.0648 10.5597 -0.773888
8.03148 10.6041 -0.774772
8.00859 10.6627 -0.776691
8.00602 10.749 -0.780629
4.78766 23.3779 -1.38986
4.66215 23.2399 -1.38054
4.55547 23.1911 -1.37654
4.44949 23.143 -1.37262
4.34613 23.1063 -1.36938
4.24887 23.0998 -1.36798
4.15156 23.0922 -1.36653
4.05449 23.0845 -1.3651
3.95863 23.0832 -1.36407
3.86445 23.0907 -1.36359
3.77031 23.0982 -1.36312
3.67609 23.1048 -1.36263
3.58418 23.1261 -1.36302
3.49516 23.1664 -1.36456
3.4059 23.2069 -1.36613
3.31656 23.2484 -1.36777
3.23461 23.3446 -1.37266
3.1559 23.4704 -1.37929
3.08988 23.7002 -1.39206
3.10223 24.5646 -1.44209
3.25379 26.6257 -1.56231
3.14516 26.6252 -1.56153
3.08988 27.0912 -1.58812
1.02262 10.457 -0.611957
0.96707 10.317 -0.60353
0.914336 10.1957 -0.596214
0.86293 10.0773 -0.589081
0.817695 10.023 -0.585715
0.776016 10.008 -0.584649
0.734414 9.99301 -0.583596
0.693047 9.97809 -0.582556
0.651758 9.9632 -0.58153
0.610625 9.94836 -0.580516
0.569648 9.93359 -0.579515
0.528828 9.91887 -0.578527
0.488086 9.90418 -0.577552
0.447539 9.88953 -0.576588
0.407031 9.87316 -0.575533
0.367031 9.86687 -0.575075
0.279844 8.43531 -0.491569
0.244922 8.40145 -0.489535
0.210273 8.36852 -0.487565
0.17668 8.36941 -0.487572
0.145547 8.5209 -0.496358
0.108086 8.2752 -0.482016
0.0744922 8.23719 -0.479782
0.0412891 8.21523 -0.478489
0.00820312 8.2025 -0.477742
-0.0246875 8.1968 -0.477415
-0.0576953 8.19762 -0.477467
-0.0907422 8.20484 -0.477904
-0.123906 8.21953 -0.478787
-0.157461 8.24465 -0.480282
-0.191641 8.29039 -0.482988
-0.229805 8.46609 -0.493274
-0.265156 8.50703 -0.495717
-0.347187 9.86629 -0.575003
-0.386953 9.86738 -0.575152
-0.427305 9.88152 -0.576069
-0.467812 9.89691 -0.577076
-0.508516 9.91168 -0.578045
-0.549219 9.92633 -0.579028
-0.590156 9.94109 -0.580022
-0.631211 9.95594 -0.58103
-0.672383 9.97078 -0.58205
-0.71375 9.9857 -0.583084
-0.755273 10.0007 -0.58413
-0.796875 10.0157 -0.58519
-0.838672 10.0308 -0.586263
-0.888594 10.1373 -0.592694
-0.940703 10.2572 -0.599919
-0.994062 10.38 -0.607332
-3.97699 25.3236 -1.49301
-4.06492 25.2216 -1.48794
-4.17102 25.2337 -1.48964
-4.28512 25.2918 -1.49407
-3.95684 20.3596 -1.208
-4.02867 20.2932 -1.20501
-4.11223 20.2868 -1.2056
-4.21918 20.3931 -1.21292
-13.682 3.83609 -0.827611
-13.6477 3.76738 -0.824614
-13.6349 3.70492 -0.822935
-13.6326 3.64551 -0.821907
-13.6226 3.58422 -0.82043
-13.6262 3.52664 -0.819782
-13.6409 3.47199 -0.819821
-13.6667 3.42016 -0.820541
-13.7059 3.37148 -0.822075
-13.7659 3.32758 -0.82486
-8.91203 0.0716406 -0.519084
-8.36949 0.0336719 -0.487471
-7.96969 3.90625e-05 -0.552857
-7.93164 -0.031875 -0.550223
-7.92344 -0.0637109 -0.549666
-7.91519 -0.0954687 -0.549117
-7.90699 -0.127187 -0.548578
-7.89875 -0.158789 -0.548047
-7.89051 -0.190312 -0.547525
-7.8823 -0.221836 -0.547012
-7.87297 -0.253242 -0.546429
-7.86312 -0.284609 -0.545821
-7.85328 -0.315859 -0.545221
-7.84574 -0.347148 -0.544791
-7.84082 -0.378516 -0.544551
-7.8359 -0.409844 -0.544319
-7.83094 -0.441172 -0.544095
-7.82602 -0.472461 -0.543878
-7.82109 -0.503711 -0.54367
-7.81605 -0.535 -0.54347
-7.81109 -0.566211 -0.543278
-7.80613 -0.597383 -0.543094
-7.80113 -0.628516 -0.542918
-7.79664 -0.659766 -0.542785
-7.7943 -0.691133 -0.542811
-7.79824 -0.723047 -0.543285
-7.80254 -0.755117 -0.543791
-7.80703 -0.787266 -0.544321
-7.81156 -0.819414 -0.54486
-7.81605 -0.85168 -0.545408
-7.82055 -0.883984 -0.545965
-7.825 -0.916367 -0.546531
-7.82953 -0.948828 -0.547106
-7.83398 -0.981328 -0.54769
-7.83844 -1.01391 -0.548283
-7.84496 -1.04684 -0.549028
-7.8548 -1.08027 -0.550019
-7.86473 -1.11387 -0.551021
-7.87344 -1.14742 -0.551949
-7.88148 -1.18102 -0.552843
-7.88957 -1.21465 -0.553747
-7.89766 -1.2484 -0.554662
-7.90574 -1.28227 -0.555587
-7.91383 -1.31629 -0.556524
-7.92195 -1.35039 -0.557472
-8.02508 -1.40113 -0.56512
-17.0481 -3.83195 -1.21213
-16.7016 -3.82469 -1.18858
-16.3983 -3.82465 -1.16808
-16.2261 -3.85332 -1.15691
-15.9446 -3.85422 -1.13793
-15.671 -3.85484 -1.1195
-15.4002 -3.85395 -1.10126
-15.1179 -3.84793 -1.08217
-14.8454 -3.84223 -1.06376
-14.5972 -3.84062 -1.04707
-14.3682 -3.84219 -1.03174
-14.1604 -3.8477 -1.01793
-13.9095 -3.83965 -1.00099
-13.7586 -3.85758 -0.991241
-13.6305 -3.88082 -0.983125
-13.5252 -3.90969 -0.976657
-13.4232 -3.93875 -0.970431
-13.3699 -3.98152 -0.967722
-13.3233 -4.02605 -0.965517
-13.3117 -4.08102 -0.965854
-13.2996 -4.13586 -0.966172
-13.2864 -4.19039 -0.966434
-13.2747 -4.24543 -0.966814
-13.2708 -4.30309 -0.967785
-13.2675 -4.36102 -0.96881
-13.2641 -4.41906 -0.969853
-13.2609 -4.4773 -0.970925
-13.2597 -4.53637 -0.972167
-13.2581 -4.59543 -0.973396
-13.2565 -4.65465 -0.974643
-13.2565 -4.71465 -0.97603
-13.2578 -4.77516 -0.977531
-13.259 -4.83594 -0.979048
-13.2597 -4.89672 -0.980546
-13.2626 -4.9584 -0.982223
-13.2657 -5.02047 -0.983938
-13.2687 -5.0827 -0.985673
-13.2753 -5.14648 -0.987687
-13.2886 -5.21316 -0.990227
-13.3039 -5.28098 -0.992943
-13.3252 -5.35156 -0.996129
-18.8381 -8.64266 -1.43777
-18.7704 -8.70305 -1.43526
-18.7541 -8.78727 -1.4367
-18.7834 -8.89332 -1.44168
-18.0035 -8.88117 -1.3926
-18.0088 -8.97394 -1.39578
-17.9401 -9.02992 -1.39326
-6.06635 -9.22117 -0.765685
-6.03514 -9.25457 -0.766437
-5.87557 -9.25176 -0.760282
-5.82715 -9.25762 -0.758832
-5.79205 -9.28441 -0.759114
-5.74736 -9.29578 -0.758149
-5.68658 -9.28066 -0.755044
-5.64535 -9.29707 -0.754526
-5.61633 -9.33371 -0.75566
-5.49455 -9.38566 -0.754448
-5.45557 -9.40555 -0.754277
-4.26562 -11.4445 -0.847257
-4.17008 -11.3271 -0.837317
-4.10393 -11.2872 -0.833144
-4.04805 -11.2744 -0.830991
-3.99752 -11.276 -0.829917
-3.951 -11.2887 -0.829676
-3.90816 -11.3119 -0.83022
-3.86926 -11.3469 -0.83164
-3.83578 -11.3986 -0.834292
-3.81551 -11.4909 -0.839917
-4.13021 -13.3287 -0.967982
-4.04232 -13.2329 -0.959843
-3.97859 -13.2142 -0.957319
-3.9275 -13.2369 -0.957813
-0.84752 -17.9294 -1.24516
-0.771992 -17.8523 -1.23957
-0.699805 -17.8454 -1.23889
-0.627715 -17.8384 -1.23822
-0.555742 -17.8314 -1.23757
-0.483789 -17.8246 -1.23695
-0.411895 -17.8166 -1.23627
-0.340215 -17.8148 -1.23604
-0.268555 -17.813 -1.23583
-0.196914 -17.8112 -1.23564
-0.125332 -17.8094 -1.23547
-0.0537109 -17.8077 -1.23533
0.0179102 -17.8073 -1.2353
0.0894727 -17.8085 -1.23539
0.161113 -17.8103 -1.23555
0.232715 -17.8121 -1.23573
0.304375 -17.8139 -1.23593
0.376035 -17.8157 -1.23615
0.447812 -17.8204 -1.23659
0.519707 -17.8279 -1.23725
0.591699 -17.8348 -1.23789
0.66375 -17.8418 -1.23854
0.735859 -17.8487 -1.23922
0.809277 -17.8827 -1.24179
0.890156 -18.0614 -1.25444
2.96057 -16.0956 -1.13528
2.96057 -15.7397 -1.11101
2.96055 -15.3987 -1.08777
2.99131 -15.2282 -1.07657
2.99256 -14.9172 -1.05542
2.99834 -14.6406 -1.0367
3.00656 -14.3862 -1.01953
3.01529 -14.1439 -1.00321
3.02367 -13.9088 -0.98739
3.03096 -13.6772 -0.971812
3.03498 -13.4394 -0.95577
3.04025 -13.2153 -0.94069
3.03832 -12.9681 -0.923961
2.96057 -12.4113 -0.885127
2.974 -12.2493 -0.874422
2.98674 -12.0896 -0.863874
3.0027 -11.9476 -0.854582
3.03795 -11.8857 -0.851017
3.07604 -11.8361 -0.848348
3.11371 -11.7863 -0.845668
3.15119 -11.7368 -0.843018
3.18836 -11.6876 -0.840398
3.23074 -11.658 -0.839197
3.27531 -11.6368 -0.838615
3.31973 -11.6155 -0.838031
3.36414 -11.5941 -0.83746
3.40844 -11.5728 -0.836904
3.45266 -11.5515 -0.836361
3.4991 -11.5375 -0.836362
3.54766 -11.5305 -0.836876
3.59566 -11.5216 -0.837272
3.64371 -11.5126 -0.837676
3.6918 -11.5036 -0.838093
3.73992 -11.4946 -0.838524
3.7882 -11.4858 -0.838989
3.83848 -11.4829 -0.839896
3.88926 -11.4811 -0.840899
3.94012 -11.4793 -0.841918
3.99117 -11.4774 -0.842953
4.04305 -11.4777 -0.84416
4.09523 -11.4784 -0.845417
4.14758 -11.4791 -0.84669
4.20027 -11.4804 -0.848024
4.25535 -11.4876 -0.849814
4.31141 -11.4968 -0.851768
4.3677 -11.506 -0.853746
4.42426 -11.5152 -0.855745
4.48109 -11.5245 -0.857767
4.5393 -11.5368 -0.860029
4.605 -11.5671 -0.863661
4.67129 -11.5976 -0.867338
4.73812 -11.6284 -0.871061
4.80555 -11.6595 -0.874828
4.92461 -11.8134 -0.887852
8.1727 -17.2168 -1.32206
8.22242 -17.1432 -1.31894
8.31955 -17.1684 -1.32345
8.38494 -17.1275 -1.32288
8.53687 10.5487 -0.941374
8.42313 10.4942 -0.93348
8.35465 10.495 -0.930553
8.28699 10.4964 -0.927714
8.21621 10.493 -0.924498
8.1593 10.5071 -0.92284
8.1116 10.5329 -0.92223
8.07195 10.569 -0.922548
8.04086 10.6165 -0.923865
8.02148 10.6799 -0.926563
8.03117 10.7828 -0.932684
3.21762 23.9294 -1.67492
3.11887 23.9225 -1.67355
1.01812 10.4108 -0.725643
0.959727 10.2385 -0.713361
0.907617 10.1207 -0.704889
0.857461 10.0136 -0.697184
0.815703 9.99813 -0.695874
0.774023 9.98269 -0.69458
0.732539 9.96766 -0.693319
0.69125 9.95266 -0.692079
0.650078 9.93777 -0.690854
0.609023 9.92285 -0.689645
0.568203 9.90801 -0.688451
0.527422 9.89328 -0.687271
0.486836 9.87855 -0.686107
0.446367 9.86391 -0.684957
0.406016 9.84926 -0.683822
0.366094 9.84199 -0.683212
0.326406 9.83859 -0.682879
0.286719 9.8359 -0.682608
0.247148 9.83465 -0.682445
0.207578 9.83332 -0.682292
0.148516 8.69156 -0.60302
0.128398 9.83082 -0.68202
0.0751562 8.3073 -0.576303
0.0415234 8.26926 -0.573645
0.00828125 8.24949 -0.572268
-0.0248437 8.24129 -0.571704
-0.0580078 8.24246 -0.571794
-0.09125 8.25238 -0.572502
-0.124727 8.27293 -0.573957
-0.158828 8.31691 -0.57705
-0.227383 9.83398 -0.682368
-0.266953 9.83531 -0.682526
-0.306562 9.83691 -0.68272
-0.346289 9.84035 -0.683047
-0.386055 9.84371 -0.683384
-0.426211 9.85668 -0.684398
-0.466641 9.87137 -0.685541
-0.507187 9.88609 -0.686698
-0.547852 9.90082 -0.687869
-0.588633 9.91559 -0.689057
-0.62957 9.93043 -0.690258
-0.670703 9.94535 -0.691475
-0.711953 9.96027 -0.692708
-0.75332 9.97527 -0.693955
-0.794844 9.99055 -0.695235
-0.836602 10.006 -0.696538
-0.882187 10.0639 -0.700813
-0.933672 10.1804 -0.70918
-0.987852 10.3154 -0.718851
-3.95605 20.3555 -1.43848
-4.02973 20.2987 -1.43561
-4.11473 20.2994 -1.43681
-4.21812 20.388 -1.44427
-13.6723 3.77422 -0.983923
-13.645 3.70766 -0.980876
-13.641 3.64773 -0.979523
-13.6317 3.5866 -0.977812
-13.6377 3.52965 -0.977224
-13.6597 3.47684 -0.977785
-13.6999 3.42844 -0.979667
-13.7724 3.38785 -0.983875
-10.0452 0.161563 -0.696927
-8.47734 0.102266 -0.588115
-8.23793 0.06625 -0.571484
-8.03957 0.0323437 -0.557709
-7.79172 0 -0.627341
-7.78379 -0.03125 -0.626708
-7.77328 -0.0625 -0.625878
-7.76133 -0.0935937 -0.624937
-7.7493 -0.124609 -0.624007
-7.73734 -0.155547 -0.623087
-7.72535 -0.186367 -0.622178
-7.7134 -0.21707 -0.62128
-7.70148 -0.247773 -0.620396
-7.68984 -0.27832 -0.619543
-7.67824 -0.308828 -0.618701
-7.66949 -0.339336 -0.618103
-7.66238 -0.369883 -0.617646
-7.65527 -0.40043 -0.617197
-7.64812 -0.430898 -0.616756
-7.64098 -0.46125 -0.616324
-7.63379 -0.491641 -0.6159
-7.62844 -0.522109 -0.615628
-7.62719 -0.552852 -0.615704
-7.62594 -0.583594 -0.615788
-7.62469 -0.614336 -0.615881
-7.6234 -0.645078 -0.615981
-7.62211 -0.675859 -0.61609
-7.62203 -0.706719 -0.61631
-7.6223 -0.737695 -0.61657
-7.62262 -0.768633 -0.616838
-7.62293 -0.799648 -0.617114
-7.62312 -0.830664 -0.617399
-7.62344 -0.861719 -0.617701
-7.62969 -0.893516 -0.61849
-7.63586 -0.925352 -0.619289
-7.64203 -0.957305 -0.620098
-7.6482 -0.989336 -0.620916
-7.65434 -1.02137 -0.621744
-7.6616 -1.05371 -0.62267
-7.67285 -1.08672 -0.623935
-7.68414 -1.11984 -0.625213
-7.69555 -1.15312 -0.626514
-7.70723 -1.18656 -0.627847
-7.71891 -1.22012 -0.629193
-7.73062 -1.25387 -0.630553
-7.7423 -1.28777 -0.631926
-7.75402 -1.32176 -0.633313
-7.76582 -1.3559 -0.634714
-7.80918 -1.39586 -0.638713
-7.91102 -1.44691 -0.647513
-17.0802 -3.83914 -1.4095
-16.7017 -3.82465 -1.37952
-16.3983 -3.82465 -1.35572
-16.2072 -3.84883 -1.34119
-15.9211 -3.84855 -1.31879
-15.6562 -3.85121 -1.29811
-15.4026 -3.85457 -1.27836
-15.1321 -3.85156 -1.25718
-14.8541 -3.84441 -1.23536
-14.5957 -3.84027 -1.21515
-14.3503 -3.83746 -1.19599
-14.0749 -3.82445 -1.17431
-13.8545 -3.82449 -1.15719
-13.6404 -3.82441 -1.14059
-13.5833 -3.86738 -1.1371
-13.4852 -3.89809 -1.13019
-13.3991 -3.93168 -1.1243
-13.333 -3.97059 -1.12008
-13.2829 -4.01383 -1.11722
-13.2745 -4.06957 -1.11788
-13.266 -4.12539 -1.11855
-13.2575 -4.18125 -1.11924
-13.249 -4.23723 -1.11995
-13.2441 -4.29441 -1.12099
-13.2429 -4.35297 -1.12236
-13.2417 -4.41164 -1.12375
-13.2404 -4.47039 -1.12516
-13.2407 -4.52988 -1.12672
-13.2412 -4.58957 -1.12833
-13.2418 -4.64953 -1.12996
-13.2418 -4.70941 -1.13157
-13.2412 -4.76922 -1.13315
-13.2407 -4.82926 -1.13475
-13.2403 -4.88949 -1.13639
-13.2414 -4.95047 -1.13819
-13.2426 -5.01168 -1.14001
-13.2438 -5.07312 -1.14186
-13.2516 -5.13727 -1.1443
-13.2616 -5.20258 -1.14696
-13.2716 -5.2682 -1.14966
-13.2817 -5.3341 -1.15238
-13.5869 -5.52016 -1.18077
-5.88658 -9.26914 -0.88407
-5.83275 -9.26648 -0.881573
-5.79437 -9.28813 -0.881411
-5.76928 -9.33121 -0.883289
-5.6957 -9.29555 -0.877742
-5.65207 -9.30812 -0.876778
-5.62061 -9.34074 -0.877712
-5.61418 -9.41562 -0.882619
-4.26377 -11.4395 -0.982931
-4.18047 -11.3554 -0.974253
-4.1115 -11.308 -0.968768
-4.05457 -11.2927 -0.966042
-4.00336 -11.2925 -0.964647
-3.95627 -11.3038 -0.964242
-3.91287 -11.3255 -0.964746
-3.87332 -11.3588 -0.966251
-3.83895 -11.4079 -0.969103
-3.81537 -11.4905 -0.974809
-4.13822 -13.3544 -1.12566
-4.04488 -13.2412 -1.11473
-3.98449 -13.2337 -1.11274
-0.873496 -18.479 -1.48947
-0.799062 -18.4788 -1.48918
-0.704395 -17.9626 -1.44735
-0.63002 -17.9052 -1.44251
-0.556738 -17.8633 -1.43894
-0.484824 -17.8629 -1.43873
-0.412969 -17.8624 -1.43855
-0.341113 -17.862 -1.4384
-0.269297 -17.8627 -1.43836
-0.1975 -17.8638 -1.43837
-0.125703 -17.8649 -1.43841
-0.0538672 -17.866 -1.43847
0.0179687 -17.8666 -1.43851
0.0897656 -17.8655 -1.43844
0.161582 -17.8643 -1.43839
0.233379 -17.8632 -1.43836
0.305176 -17.8621 -1.43836
0.377012 -17.8622 -1.43847
0.448867 -17.8626 -1.43864
0.520762 -17.863 -1.43883
0.592656 -17.8635 -1.43905
0.668027 -17.9573 -1.44681
0.761836 -18.4786 -1.48905
0.83625 -18.4788 -1.48932
2.96055 -16.0956 -1.31766
2.96055 -15.7397 -1.28949
2.96055 -15.3987 -1.26251
2.9782 -15.1614 -1.24403
2.98121 -14.8607 -1.22033
2.98799 -14.5901 -1.19909
2.99703 -14.3407 -1.17958
3.00668 -14.1034 -1.16104
3.01541 -13.8707 -1.14287
3.02311 -13.6418 -1.125
3.02824 -13.4096 -1.10684
3.03346 -13.1857 -1.08937
2.96055 -12.6361 -1.04493
2.96057 -12.4113 -1.02731
2.96055 -12.1938 -1.0103
2.97812 -12.0547 -0.999751
2.99539 -11.9187 -0.989462
3.02645 -11.8405 -0.983977
3.06426 -11.7907 -0.980851
3.10193 -11.7416 -0.977797
3.13984 -11.6944 -0.974909
3.17746 -11.6475 -0.972053
3.2198 -11.6186 -0.970716
3.2641 -11.5971 -0.970011
3.30836 -11.5757 -0.969322
3.35336 -11.5571 -0.968881
3.39863 -11.5396 -0.96856
3.44395 -11.5223 -0.968255
3.48969 -11.5066 -0.968108
3.53758 -11.4978 -0.968559
3.58547 -11.4891 -0.969026
3.63344 -11.4802 -0.96951
3.6823 -11.4739 -0.970218
3.73141 -11.4685 -0.971015
3.78066 -11.463 -0.971828
3.83086 -11.4601 -0.972881
3.88137 -11.4579 -0.974012
3.93203 -11.4556 -0.975154
3.98277 -11.4532 -0.976309
4.03473 -11.454 -0.977748
4.08734 -11.4564 -0.979345
4.1402 -11.4586 -0.980954
4.19312 -11.4609 -0.98258
4.24734 -11.4659 -0.984462
4.30211 -11.4719 -0.986459
4.35711 -11.478 -0.988481
4.41305 -11.486 -0.990693
4.47004 -11.4961 -0.993103
4.52812 -11.5084 -0.995727
4.59109 -11.5322 -0.999376
4.65461 -11.5562 -1.00307
4.71852 -11.5803 -1.0068
4.78465 -11.6089 -1.01095
4.87828 -11.7023 -1.02079
4.99568 -11.8496 -1.03537
8.12545 -17.2963 -1.53861
8.16107 -17.1923 -1.53226
8.21377 -17.1252 -1.52921
8.39561 -17.1494 -1.53734
8.4134 10.482 -1.08218
8.34395 10.4815 -1.07866
8.2841 10.4927 -1.07636
8.21746 10.4946 -1.07317
8.16301 10.5119 -1.07157
8.1173 10.5403 -1.07113
8.07969 10.5791 -1.07177
8.05102 10.63 -1.07363
8.0359 10.6991 -1.07734
1.01605 10.3902 -0.840541
0.955898 10.1981 -0.824686
0.900625 10.042 -0.811764
0.854961 9.98434 -0.806821
0.813281 9.96902 -0.805309
0.771797 9.95367 -0.803816
0.73043 9.93844 -0.80234
0.68918 9.92328 -0.800884
0.648125 9.90812 -0.799444
0.607266 9.89297 -0.798023
0.566445 9.87801 -0.796619
0.525859 9.86328 -0.795259
0.485391 9.84863 -0.793915
0.445039 9.83406 -0.792589
0.404805 9.81957 -0.79128
0.365 9.81254 -0.790589
0.32543 9.8091 -0.790206
0.285859 9.80578 -0.789836
0.246328 9.80242 -0.789478
0.206836 9.79902 -0.789133
0.167344 9.79566 -0.788801
0.108398 8.29598 -0.667996
0.0746094 8.24945 -0.664221
0.0412891 8.22453 -0.662195
0.00824219 8.21027 -0.661037
-0.0247656 8.20367 -0.660511
-0.0576953 8.20395 -0.660546
-0.0908203 8.21109 -0.661143
-0.124063 8.22621 -0.662398
-0.157617 8.25297 -0.664599
-0.192031 8.30664 -0.66898
-0.266133 9.80414 -0.789658
-0.305664 9.8075 -0.790022
-0.345273 9.81086 -0.790399
-0.384883 9.81422 -0.790788
-0.424961 9.82695 -0.791945
-0.465234 9.84148 -0.793263
-0.505664 9.85613 -0.794597
-0.546172 9.87078 -0.795949
-0.586875 9.88562 -0.797331
-0.627695 9.90074 -0.798744
-0.668672 9.91582 -0.800174
-0.709844 9.93102 -0.801622
-0.751133 9.94625 -0.803088
-0.792539 9.96148 -0.804573
-0.834141 9.97684 -0.806075
-0.875898 9.99223 -0.807596
-0.926914 10.1066 -0.817137
-0.985937 10.2952 -0.832692
-1.04727 10.4909 -0.848861
-13.7833 3.8048 -1.15125
-13.735 3.73211 -1.14596
-13.7369 3.6734 -1.14487
-13.7593 3.6202 -1.14552
-13.7306 3.55371 -1.14193
-13.7376 3.49664 -1.14133
-13.7719 3.44648 -1.14302
-9.04891 0.181914 -0.728707
-8.34176 0.134141 -0.671711
-7.97375 0.0961719 -0.642043
-7.89605 0.0635156 -0.635761
-7.83535 0.0315234 -0.630858
-7.56965 3.90625e-05 -0.693965
-7.54484 -0.0303125 -0.691696
-7.53383 -0.0605469 -0.690707
-7.51879 -0.0906641 -0.689352
-7.50016 -0.120586 -0.687685
-7.48164 -0.150391 -0.686033
-7.46309 -0.180039 -0.684393
-7.44453 -0.20957 -0.682766
-7.42625 -0.238906 -0.681173
-7.40961 -0.268203 -0.679739
-7.39297 -0.297344 -0.678317
-7.38168 -0.326602 -0.677397
-7.37957 -0.35625 -0.677327
-7.37738 -0.385898 -0.677263
-7.37512 -0.415508 -0.677204
-7.37281 -0.445078 -0.677151
-7.37043 -0.474727 -0.677103
-7.36801 -0.504297 -0.67706
-7.35715 -0.533242 -0.676251
-7.33762 -0.561523 -0.674659
-7.31809 -0.589609 -0.673078
-7.29855 -0.617617 -0.671504
-7.27902 -0.64543 -0.66994
-7.25949 -0.673125 -0.668385
-7.26328 -0.70293 -0.668991
-7.28 -0.734062 -0.670799
-7.29676 -0.76543 -0.672618
-7.31344 -0.796953 -0.674448
-7.33016 -0.828555 -0.676288
-7.3468 -0.860391 -0.678138
-7.35031 -0.890742 -0.678785
-7.3498 -0.920664 -0.679075
-7.34926 -0.950625 -0.679372
-7.34863 -0.980625 -0.679673
-7.34793 -1.01063 -0.679981
-7.34719 -1.04059 -0.680294
-7.35801 -1.0723 -0.681687
-7.37352 -1.10492 -0.683534
-7.3891 -1.13762 -0.685396
-7.40527 -1.17059 -0.687326
-7.42305 -1.20402 -0.689419
-7.44086 -1.23758 -0.691529
-7.45867 -1.27141 -0.693657
-7.47656 -1.30539 -0.695803
-7.49453 -1.33961 -0.697967
-7.56387 -1.3834 -0.704937
-7.63727 -1.42855 -0.71231
-7.71219 -1.47473 -0.719845
-16.7017 -3.82465 -1.5708
-16.3983 -3.82461 -1.5437
-16.3238 -3.87648 -1.53815
-16.3246 -3.94605 -1.5397
-16.3254 -4.01582 -1.54129
-15.3638 -3.84484 -1.45195
-15.1061 -3.84496 -1.42905
-14.8483 -3.84297 -1.40611
-14.602 -3.84187 -1.38423
-14.3527 -3.83805 -1.36205
-14.0749 -3.82445 -1.33714
-13.8545 -3.82445 -1.31765
-13.6404 -3.82441 -1.29874
-13.5441 -3.85625 -1.29104
-13.5031 -3.90328 -1.28861
-13.4229 -3.93863 -1.28246
-13.3601 -3.97863 -1.27798
-13.2993 -4.01879 -1.2737
-13.2788 -4.07094 -1.27329
-13.2704 -4.12676 -1.27406
-13.261 -4.18242 -1.27477
-13.2515 -4.23805 -1.27548
-13.2421 -4.29375 -1.27622
-13.2406 -4.35219 -1.27776
-13.2404 -4.41117 -1.27944
-13.2406 -4.47047 -1.28118
-13.2408 -4.52992 -1.28296
-13.2412 -4.58961 -1.28477
-13.2408 -4.64918 -1.28654
-13.2408 -4.70898 -1.28836
-13.2411 -4.76914 -1.29025
-13.2408 -4.82926 -1.2921
-13.2406 -4.88961 -1.29399
-13.2404 -4.95012 -1.2959
-13.2403 -5.01082 -1.29785
