ply
format ascii 1.0
comment Created by Open3D
element vertex 1667
property float x
property float y
property float z
end_header
-0.297754 -0.468789 -0.288612
-0.295996 -0.470176 -0.288738
-0.294238 -0.471582 -0.288863
-0.292461 -0.472949 -0.288985
-0.290645 -0.474336 -0.289106
-0.288867 -0.475684 -0.289224
-0.28709 -0.477051 -0.28934
-0.285293 -0.478398 -0.289454
-0.283457 -0.479687 -0.289566
-0.281621 -0.481016 -0.289676
-0.279805 -0.482344 -0.289783
-0.277969 -0.483633 -0.289889
-0.276152 -0.484922 -0.289992
-0.274258 -0.486172 -0.290085
-0.272344 -0.487402 -0.290155
-0.270449 -0.488613 -0.290223
-0.268594 -0.489805 -0.290288
-0.266641 -0.490977 -0.290351
-0.264727 -0.492148 -0.290411
-0.262793 -0.493301 -0.290469
-0.26084 -0.494434 -0.290524
-0.258887 -0.495547 -0.290577
-0.256973 -0.496699 -0.290627
-0.25502 -0.497832 -0.290674
-0.253047 -0.498906 -0.290719
-0.251094 -0.49998 -0.290761
-0.249082 -0.501055 -0.290801
-0.247109 -0.502109 -0.290838
-0.245078 -0.503164 -0.290873
-0.243125 -0.504219 -0.290905
-0.241094 -0.505234 -0.290934
-0.239082 -0.50623 -0.290961
-0.23707 -0.507227 -0.290986
-0.235059 -0.508242 -0.291007
-0.233047 -0.509238 -0.291026
-0.230996 -0.510195 -0.291043
-0.228945 -0.511094 -0.291057
-0.226875 -0.512051 -0.291068
-0.224844 -0.512969 -0.291077
-0.222793 -0.513867 -0.291083
-0.220703 -0.514766 -0.291087
-0.218672 -0.515664 -0.291087
-0.216582 -0.516523 -0.291086
-0.214512 -0.517402 -0.291082
-0.212441 -0.518262 -0.291075
-0.210332 -0.519102 -0.291066
-0.208223 -0.519922 -0.291053
-0.206133 -0.520742 -0.291039
-0.204023 -0.521484 -0.291022
-0.201914 -0.522266 -0.291002
-0.199824 -0.523086 -0.29098
-0.197637 -0.523789 -0.290955
-0.195547 -0.524531 -0.290927
-0.193438 -0.525273 -0.290897
-0.191309 -0.525996 -0.290864
-0.189141 -0.52668 -0.290829
-0.186973 -0.527383 -0.290791
-0.184824 -0.528047 -0.290751
-0.182715 -0.528711 -0.290708
-0.180547 -0.529336 -0.290662
-0.178359 -0.52998 -0.290614
-0.17623 -0.530625 -0.290563
-0.174062 -0.53123 -0.29051
-0.171914 -0.531816 -0.290455
-0.169707 -0.532383 -0.290396
-0.1675 -0.532969 -0.290335
-0.165352 -0.533496 -0.290272
-0.163164 -0.534063 -0.290206
-0.160996 -0.53457 -0.290137
-0.158789 -0.535117 -0.290066
-0.156602 -0.535586 -0.289993
-0.154395 -0.536055 -0.289917
-0.152285 -0.536758 -0.289953
-0.150176 -0.537578 -0.290076
-0.148086 -0.538437 -0.290197
-0.145996 -0.539219 -0.290317
-0.143867 -0.540039 -0.290434
-0.141777 -0.54082 -0.290549
-0.139629 -0.541562 -0.290661
-0.13752 -0.542344 -0.290773
-0.135391 -0.543125 -0.290881
-0.133223 -0.543828 -0.290988
-0.131113 -0.54459 -0.291093
-0.128965 -0.545273 -0.291195
-0.126816 -0.545977 -0.291296
-0.124629 -0.54668 -0.291394
-0.12248 -0.547344 -0.29149
-0.120332 -0.548008 -0.291584
-0.118145 -0.548652 -0.291676
-0.115996 -0.549316 -0.291766
-0.113789 -0.549922 -0.291853
-0.111621 -0.550547 -0.291939
-0.109414 -0.551133 -0.292023
-0.107227 -0.551719 -0.292104
-0.105059 -0.552344 -0.292183
-0.102852 -0.552852 -0.29226
-0.100703 -0.553437 -0.292334
-0.0984961 -0.553945 -0.292407
-0.0962891 -0.554492 -0.292477
-0.0940625 -0.555 -0.292546
-0.0918359 -0.555508 -0.292612
-0.0896484 -0.555977 -0.292676
-0.0874023 -0.556484 -0.292737
-0.0851953 -0.556914 -0.292797
-0.0829687 -0.557285 -0.292815
-0.0807227 -0.557617 -0.292817
-0.0784766 -0.557949 -0.292816
-0.07625 -0.558242 -0.292814
-0.0740039 -0.558555 -0.292809
-0.0717187 -0.558828 -0.292802
-0.0694922 -0.559082 -0.292793
-0.0672461 -0.559375 -0.292782
-0.065 -0.55957 -0.292768
-0.0627539 -0.559805 -0.292752
-0.0604687 -0.560019 -0.292735
-0.0582422 -0.560234 -0.292715
-0.0559766 -0.56043 -0.292693
-0.0537305 -0.560586 -0.292668
-0.0514648 -0.560762 -0.292642
-0.0491797 -0.560898 -0.292614
-0.0469336 -0.561016 -0.292583
-0.044668 -0.561133 -0.29255
-0.0424023 -0.56125 -0.292515
-0.0401562 -0.561367 -0.292478
-0.0379102 -0.561445 -0.292438
-0.0356445 -0.561504 -0.292397
-0.0333594 -0.561562 -0.292353
-0.0310938 -0.561582 -0.292307
-0.0288477 -0.561641 -0.292259
-0.026582 -0.561641 -0.292209
-0.0243164 -0.561641 -0.292157
-0.0220898 -0.561641 -0.292103
-0.0198047 -0.561582 -0.292046
-0.0175391 -0.561562 -0.291988
-0.0152539 -0.561523 -0.291927
-0.0130273 -0.561445 -0.291864
-0.0107422 -0.561367 -0.291799
-0.00847656 -0.561289 -0.291732
-0.00625 -0.561172 -0.291663
-0.00396484 -0.561055 -0.291592
-0.00171875 -0.560937 -0.291519
0.000527344 -0.560859 -0.291481
0.00279297 -0.560996 -0.291556
0.005 -0.561133 -0.291628
0.00732422 -0.56125 -0.291698
0.00957031 -0.561328 -0.291766
0.0118359 -0.561406 -0.291832
0.014082 -0.561465 -0.291896
0.0163477 -0.561523 -0.291958
0.0185937 -0.561602 -0.292018
0.0208594 -0.561602 -0.292075
0.0231445 -0.561641 -0.29213
0.0253711 -0.561621 -0.292184
0.0276367 -0.561621 -0.292235
0.0299219 -0.561602 -0.292284
0.0321875 -0.561602 -0.292331
0.0344336 -0.561523 -0.292375
0.0366992 -0.561484 -0.292418
0.0389844 -0.561406 -0.292458
0.0412109 -0.561289 -0.292497
0.0434766 -0.561211 -0.292533
0.0457617 -0.561074 -0.292567
0.0480078 -0.560957 -0.292599
0.0502539 -0.56082 -0.292628
0.0525 -0.560684 -0.292656
0.0548047 -0.560488 -0.292681
0.0570508 -0.560332 -0.292704
0.0593164 -0.560156 -0.292725
0.0615625 -0.559902 -0.292744
0.0638086 -0.559687 -0.292761
0.0660742 -0.559492 -0.292775
0.0683008 -0.559219 -0.292788
0.0705859 -0.558945 -0.292798
0.0728125 -0.558672 -0.292806
0.0750391 -0.558398 -0.292812
0.0772852 -0.558086 -0.292815
0.0795508 -0.557813 -0.292817
0.0817969 -0.557461 -0.292816
0.0840234 -0.557109 -0.292813
0.08625 -0.556699 -0.292767
0.0884766 -0.556211 -0.292707
0.0907031 -0.555762 -0.292644
0.0929102 -0.555254 -0.292579
0.0950977 -0.554766 -0.292512
0.0973633 -0.554219 -0.292443
0.0995312 -0.553691 -0.292371
0.101699 -0.553164 -0.292297
0.103906 -0.552578 -0.292222
0.106113 -0.552031 -0.292144
0.10832 -0.551445 -0.292063
0.110488 -0.550859 -0.291981
0.112676 -0.550234 -0.291897
0.114844 -0.549648 -0.29181
0.117031 -0.548984 -0.291721
0.11918 -0.548359 -0.29163
0.121328 -0.547695 -0.291537
0.123477 -0.547031 -0.291442
0.125645 -0.546328 -0.291345
0.127793 -0.545625 -0.291246
0.129961 -0.544922 -0.291144
0.132109 -0.544199 -0.29104
0.134219 -0.543437 -0.290935
0.136387 -0.542715 -0.290827
0.138496 -0.541973 -0.290717
0.140625 -0.541191 -0.290605
0.142734 -0.54043 -0.290491
0.144863 -0.539629 -0.290376
0.146953 -0.538828 -0.290257
0.149082 -0.537988 -0.290137
0.151152 -0.537168 -0.290015
0.153262 -0.536309 -0.289891
0.155469 -0.53582 -0.289956
0.157656 -0.535312 -0.290031
0.159824 -0.534824 -0.290103
0.162031 -0.534297 -0.290173
0.164199 -0.533789 -0.29024
0.166387 -0.533242 -0.290304
0.168555 -0.532676 -0.290367
0.170762 -0.532109 -0.290426
0.17293 -0.531484 -0.290483
0.175078 -0.530918 -0.290538
0.177246 -0.530312 -0.29059
0.179414 -0.529668 -0.290639
0.181562 -0.529043 -0.290686
0.183711 -0.528359 -0.29073
0.185859 -0.527715 -0.290772
0.188008 -0.527051 -0.290811
0.190176 -0.526328 -0.290848
0.192266 -0.525664 -0.290881
0.194453 -0.524922 -0.290913
0.196543 -0.52418 -0.290942
0.198652 -0.523438 -0.290968
0.200801 -0.522656 -0.290992
0.20291 -0.521914 -0.291013
0.205 -0.521133 -0.291031
0.20709 -0.520312 -0.291047
0.209219 -0.519492 -0.29106
0.211328 -0.518672 -0.291071
0.213418 -0.517852 -0.291079
0.215469 -0.516992 -0.291085
0.217578 -0.516094 -0.291088
0.219648 -0.515254 -0.291088
0.221719 -0.514336 -0.291086
0.22375 -0.513457 -0.291081
0.225859 -0.5125 -0.291073
0.227891 -0.511582 -0.291063
0.229922 -0.510644 -0.291051
0.231953 -0.509727 -0.291035
0.234004 -0.508711 -0.291018
0.236016 -0.507734 -0.290997
0.238027 -0.506758 -0.290974
0.240039 -0.505742 -0.290949
0.24207 -0.504727 -0.290921
0.244043 -0.503711 -0.29089
0.246055 -0.502656 -0.290856
0.248047 -0.501582 -0.29082
0.250059 -0.500508 -0.290782
0.252031 -0.499453 -0.290741
0.253965 -0.498359 -0.290697
0.255937 -0.497266 -0.290651
0.257891 -0.496133 -0.290602
0.259805 -0.495 -0.290551
0.261797 -0.493867 -0.290497
0.26373 -0.492695 -0.290441
0.265645 -0.491543 -0.290382
0.267539 -0.490391 -0.29032
0.269453 -0.48918 -0.290256
0.271348 -0.487988 -0.29019
0.273262 -0.486777 -0.290121
0.275156 -0.485586 -0.290043
0.276992 -0.484258 -0.289941
0.278809 -0.482988 -0.289837
0.280645 -0.48166 -0.28973
0.2825 -0.480371 -0.289622
0.284277 -0.479062 -0.289511
0.286113 -0.477715 -0.289398
0.28791 -0.476367 -0.289283
0.289727 -0.475 -0.289166
0.291504 -0.473633 -0.289046
0.293301 -0.472266 -0.288925
0.295059 -0.470918 -0.288801
0.296816 -0.469492 -0.288676
0.298574 -0.468086 -0.288548
0.300332 -0.46668 -0.288418
0.302051 -0.465234 -0.288286
0.30375 -0.463789 -0.288152
0.305508 -0.462383 -0.288016
0.307207 -0.460918 -0.287877
0.308906 -0.459453 -0.287737
0.310605 -0.457988 -0.287595
0.312285 -0.456504 -0.28745
0.313965 -0.455 -0.287304
0.315625 -0.453516 -0.287156
0.317266 -0.451992 -0.287005
0.318887 -0.450469 -0.286853
0.320566 -0.448984 -0.286698
0.322148 -0.447402 -0.286542
0.323828 -0.445859 -0.286384
0.32541 -0.444336 -0.286223
0.327031 -0.442773 -0.286061
0.328594 -0.441172 -0.285897
0.330176 -0.439609 -0.285731
0.331738 -0.438047 -0.285563
0.333262 -0.436445 -0.285393
0.334824 -0.434844 -0.285221
0.336387 -0.433203 -0.285047
0.33793 -0.431582 -0.284871
0.339453 -0.429961 -0.284694
0.340957 -0.428281 -0.284514
0.342461 -0.42666 -0.284333
0.343926 -0.425 -0.28415
0.34543 -0.423359 -0.283965
0.346895 -0.421699 -0.283778
0.34834 -0.42 -0.283589
0.349785 -0.41832 -0.283399
0.351211 -0.416641 -0.283207
0.352676 -0.414922 -0.283013
0.354082 -0.413223 -0.282817
0.355527 -0.411504 -0.282619
0.356914 -0.409766 -0.28242
0.358281 -0.408047 -0.282219
0.359668 -0.406328 -0.282016
0.361055 -0.40457 -0.281812
0.362383 -0.402812 -0.281606
0.36373 -0.401094 -0.281398
0.365078 -0.399297 -0.281189
0.366426 -0.397539 -0.280977
0.367734 -0.395742 -0.280765
0.369043 -0.393965 -0.28055
0.370332 -0.392188 -0.280334
0.484082 0.211602 -0.274554
0.482305 0.213164 -0.274036
0.480508 0.214668 -0.273513
0.478711 0.216172 -0.272986
0.476914 0.217695 -0.272454
0.475098 0.219141 -0.271918
0.473281 0.220625 -0.271377
0.471426 0.22207 -0.270833
0.46959 0.223516 -0.270284
0.467734 0.224961 -0.269731
0.465859 0.226367 -0.269174
0.464004 0.227773 -0.268613
0.46207 0.229102 -0.268049
0.460176 0.230508 -0.26748
0.458379 0.231914 -0.266975
0.456719 0.233359 -0.266556
0.455059 0.234844 -0.266133
0.453398 0.236309 -0.265708
0.45168 0.237715 -0.265279
0.44998 0.23916 -0.264848
0.448301 0.240566 -0.264414
0.446641 0.241953 -0.263978
0.444883 0.243359 -0.263539
0.443184 0.244727 -0.263096
0.441445 0.246094 -0.262652
0.439687 0.247441 -0.262205
0.437949 0.248789 -0.261756
0.436191 0.250117 -0.261303
0.434395 0.251406 -0.260849
0.432617 0.252734 -0.260392
0.430859 0.254004 -0.259933
0.429043 0.255273 -0.259471
0.427246 0.256523 -0.259007
0.425469 0.257812 -0.258542
0.423672 0.259062 -0.258073
0.421875 0.260273 -0.257603
0.420039 0.261484 -0.257131
0.418223 0.262695 -0.256656
0.416348 0.263887 -0.25618
0.414512 0.265039 -0.255701
0.412695 0.266211 -0.255221
0.410859 0.267363 -0.254738
0.408984 0.268496 -0.254254
0.407109 0.269629 -0.253768
0.405234 0.270742 -0.25328
0.403379 0.271836 -0.252791
0.401484 0.27291 -0.252299
0.39959 0.274004 -0.251806
0.397715 0.275039 -0.251312
0.39584 0.276094 -0.250816
0.393945 0.277148 -0.250318
0.392051 0.278164 -0.249819
0.390098 0.27918 -0.249318
0.388203 0.280195 -0.248816
0.386309 0.281172 -0.248312
0.384375 0.282148 -0.247807
0.382461 0.283125 -0.247301
0.380508 0.284063 -0.246793
0.378594 0.285 -0.246285
0.37668 0.285937 -0.245774
0.374746 0.286836 -0.245263
0.373223 0.288066 -0.245033
0.372031 0.289531 -0.245005
0.370801 0.290996 -0.244976
0.369609 0.292461 -0.244946
0.368418 0.293906 -0.244916
0.367168 0.295312 -0.244885
0.365938 0.296797 -0.244853
0.364648 0.298203 -0.244821
0.363438 0.299648 -0.244788
0.362188 0.301055 -0.244754
0.360898 0.302461 -0.24472
0.359648 0.303867 -0.244685
0.358359 0.305273 -0.244649
0.35709 0.30666 -0.244613
0.355781 0.308027 -0.244576
0.354453 0.309414 -0.244538
0.353184 0.310801 -0.244499
0.351895 0.312148 -0.24446
0.350566 0.313555 -0.24442
0.349277 0.314883 -0.24438
0.347891 0.316211 -0.244339
0.346602 0.317559 -0.244297
0.345234 0.318906 -0.244254
0.343867 0.320234 -0.244211
0.342559 0.321562 -0.244167
0.341191 0.322871 -0.244123
0.339805 0.32418 -0.244078
0.338477 0.325508 -0.244032
0.33709 0.326758 -0.243985
0.335684 0.328086 -0.243938
0.334336 0.329375 -0.243891
0.332949 0.330645 -0.243842
0.331523 0.331914 -0.243793
0.330117 0.333164 -0.243743
0.32873 0.334414 -0.243693
0.327266 0.335664 -0.243642
0.325859 0.336914 -0.24359
0.324414 0.338125 -0.243538
0.323008 0.339375 -0.243485
0.321562 0.340586 -0.243431
0.320117 0.341797 -0.243377
0.318691 0.343008 -0.243322
0.317207 0.344199 -0.243266
0.315742 0.345391 -0.24321
0.314297 0.346602 -0.243153
0.312852 0.347773 -0.243096
0.311348 0.348926 -0.243038
0.309902 0.350078 -0.242979
0.308379 0.35127 -0.24292
0.306895 0.352402 -0.24286
0.305371 0.353555 -0.242799
0.303887 0.354687 -0.242738
0.302402 0.355801 -0.242676
0.300879 0.356953 -0.242614
0.299375 0.358047 -0.242551
0.297871 0.359141 -0.242487
0.296348 0.360254 -0.242423
0.294844 0.361348 -0.242358
0.293281 0.362402 -0.242292
0.291719 0.363516 -0.242226
0.290156 0.36457 -0.24216
0.288652 0.365645 -0.242092
0.28709 0.36668 -0.242024
0.285527 0.367734 -0.241956
0.283965 0.36875 -0.241887
0.282402 0.369824 -0.241817
0.280859 0.370859 -0.241761
0.279355 0.371953 -0.241763
0.277832 0.373105 -0.241764
0.276387 0.374219 -0.241766
0.274883 0.375352 -0.241766
0.273359 0.376445 -0.241766
0.271816 0.37752 -0.241765
0.270312 0.378633 -0.241764
0.26877 0.379707 -0.241762
0.267266 0.380781 -0.241759
0.265703 0.381836 -0.241756
0.26416 0.38293 -0.241753
0.262637 0.383984 -0.241748
0.261074 0.38498 -0.241744
0.259512 0.386035 -0.241739
0.257949 0.38707 -0.241733
0.256406 0.388086 -0.241726
0.254844 0.389102 -0.24172
0.253242 0.390117 -0.241712
0.251699 0.391133 -0.241704
0.250078 0.392109 -0.241695
0.248496 0.393125 -0.241686
0.246934 0.394062 -0.241676
0.245312 0.395059 -0.241665
0.243711 0.396016 -0.241655
0.24209 0.396992 -0.241643
0.240488 0.39793 -0.241631
0.238848 0.398867 -0.241618
0.237246 0.399805 -0.241605
0.235645 0.400742 -0.241591
0.234023 0.40166 -0.241577
0.232363 0.402559 -0.241562
0.230781 0.403477 -0.241546
0.229082 0.404355 -0.24153
0.22748 0.405273 -0.241514
0.22584 0.406152 -0.241497
0.224199 0.406992 -0.241479
0.222539 0.407891 -0.241461
0.220898 0.40875 -0.241442
0.219219 0.40959 -0.241423
0.217539 0.41043 -0.241403
0.215859 0.41127 -0.241382
0.21416 0.412109 -0.241361
0.21248 0.41293 -0.241339
0.21082 0.41373 -0.241317
0.209121 0.414531 -0.241295
0.207461 0.415332 -0.241271
0.205762 0.416133 -0.241247
0.204043 0.416914 -0.241223
0.202363 0.417695 -0.241198
0.200645 0.418437 -0.241172
0.198945 0.419219 -0.241147
0.197266 0.419961 -0.24112
0.195566 0.420703 -0.241093
0.193809 0.421445 -0.241065
0.192109 0.422148 -0.241037
0.19041 0.422891 -0.241008
0.188633 0.423574 -0.240979
0.186934 0.424297 -0.240949
0.185195 0.42498 -0.240918
0.183457 0.425664 -0.240887
0.181738 0.426367 -0.240856
0.18002 0.427031 -0.240824
0.178301 0.427773 -0.240835
0.176582 0.428516 -0.24087
0.174883 0.429316 -0.240904
0.173203 0.430078 -0.240938
0.171465 0.43082 -0.240971
0.169785 0.431562 -0.241004
0.168066 0.432305 -0.241036
0.166328 0.433047 -0.241068
0.164609 0.43375 -0.2411
0.16291 0.434453 -0.241131
0.161172 0.435195 -0.241161
0.159434 0.435879 -0.241192
0.157715 0.436562 -0.241221
0.155977 0.437266 -0.241251
0.154219 0.43793 -0.24128
0.1525 0.438594 -0.241308
0.150742 0.439258 -0.241336
0.148984 0.439922 -0.241364
0.147188 0.440547 -0.241391
0.145488 0.441191 -0.241418
0.14373 0.441797 -0.241444
0.141973 0.442422 -0.24147
0.140176 0.443066 -0.241495
0.138418 0.443633 -0.24152
0.136641 0.444258 -0.241544
0.134883 0.444824 -0.241568
0.133066 0.44541 -0.241592
0.131309 0.446016 -0.241615
0.129512 0.446543 -0.241637
0.127754 0.447148 -0.24166
0.125957 0.447676 -0.241681
0.12418 0.448242 -0.241702
0.122402 0.44875 -0.241723
0.120605 0.449297 -0.241744
0.118809 0.449766 -0.241763
0.117031 0.450293 -0.241783
0.115176 0.45082 -0.241802
0.113418 0.451289 -0.24182
0.111582 0.451758 -0.241839
0.109766 0.452285 -0.241856
0.107969 0.452754 -0.241873
0.106152 0.453164 -0.24189
0.104355 0.453652 -0.241906
0.102539 0.454102 -0.241922
0.100703 0.454551 -0.241937
0.0988867 0.45498 -0.241952
0.0970508 0.455352 -0.241966
0.0952344 0.455781 -0.24198
0.0933789 0.456191 -0.241994
0.091543 0.456582 -0.242007
0.0897461 0.456973 -0.242019
0.0878906 0.457363 -0.242031
0.0860742 0.457715 -0.242043
0.0842383 0.458125 -0.242054
0.0824023 0.458477 -0.242065
0.0805469 0.458789 -0.242075
0.0786914 0.459141 -0.242085
0.076875 0.459453 -0.242094
0.0750195 0.459805 -0.242103
0.0731641 0.460117 -0.242111
0.0713281 0.460391 -0.242119
0.0694922 0.460723 -0.242126
0.0676172 0.460977 -0.242133
0.0657813 0.46127 -0.24214
0.0639062 0.461523 -0.242146
0.0620703 0.461816 -0.242151
0.0601758 0.46207 -0.242156
0.0583594 0.462305 -0.242161
0.0565039 0.462539 -0.242165
0.0546484 0.462793 -0.242168
0.052793 0.463008 -0.242172
0.0509375 0.463242 -0.242178
0.0490625 0.463477 -0.242184
0.0471875 0.463672 -0.242191
0.045332 0.463848 -0.242197
0.043457 0.464043 -0.242202
0.0416016 0.464199 -0.242207
0.0397656 0.464395 -0.242212
0.0378711 0.464531 -0.242216
0.0359961 0.464687 -0.242219
0.0341406 0.464863 -0.242223
0.0322852 0.465 -0.242225
0.0304102 0.465117 -0.242227
0.0285156 0.465234 -0.242229
0.0266406 0.465352 -0.242231
0.0248242 0.465469 -0.242232
0.0229102 0.465547 -0.242232
0.0210352 0.465664 -0.242232
0.0191797 0.465742 -0.242231
0.0173047 0.46582 -0.24223
0.0154492 0.465859 -0.242229
0.0135547 0.465937 -0.242227
0.0116992 0.465937 -0.242225
0.00980469 0.466016 -0.242222
0.00794922 0.466035 -0.242219
0.00603516 0.466055 -0.242215
0.00419922 0.466074 -0.242211
0.00232422 0.466094 -0.242206
0.000449219 0.466074 -0.242201
-0.00142578 0.466074 -0.242204
-0.00330078 0.466094 -0.242208
-0.00517578 0.466055 -0.242213
-0.00705078 0.466035 -0.242217
-0.00890625 0.466016 -0.24222
-0.0108008 0.465957 -0.242223
-0.0126563 0.465937 -0.242226
-0.0145313 0.465898 -0.242228
-0.0164453 0.46582 -0.24223
-0.0183008 0.465781 -0.242231
-0.0201367 0.465703 -0.242232
-0.0220117 0.465625 -0.242232
-0.0239258 0.465508 -0.242232
-0.0257617 0.46543 -0.242231
-0.0276367 0.465312 -0.24223
-0.0295312 0.465156 -0.242229
-0.0314062 0.465059 -0.242227
-0.0332617 0.464922 -0.242224
-0.0351172 0.464785 -0.242221
-0.0369922 0.464629 -0.242218
-0.0388867 0.464453 -0.242214
-0.0407031 0.464316 -0.24221
-0.0425781 0.464121 -0.242205
-0.0444531 0.463926 -0.2422
-0.0463281 0.46375 -0.242194
-0.0482031 0.463555 -0.242188
-0.0500586 0.46332 -0.242181
-0.0519141 0.463105 -0.242174
-0.0537305 0.462891 -0.24217
-0.0556445 0.462656 -0.242167
-0.0574609 0.462461 -0.242163
-0.0593359 0.462187 -0.242158
-0.0611914 0.461934 -0.242154
-0.0630859 0.46168 -0.242148
-0.0649219 0.461406 -0.242143
-0.0667578 0.461133 -0.242136
-0.0685937 0.460859 -0.24213
-0.0704687 0.460566 -0.242122
-0.0723242 0.460254 -0.242115
-0.0741602 0.459941 -0.242107
-0.0759766 0.459648 -0.242098
-0.077832 0.459316 -0.242089
-0.0796875 0.458984 -0.24208
-0.081543 0.458633 -0.24207
-0.0833789 0.458262 -0.242059
-0.0851953 0.45793 -0.242048
-0.0870312 0.457539 -0.242037
-0.0888672 0.457188 -0.242025
-0.0907031 0.456797 -0.242013
-0.0925195 0.456387 -0.242
-0.0943555 0.455996 -0.241987
-0.0961719 0.455586 -0.241973
-0.0980469 0.455195 -0.241959
-0.0998437 0.454727 -0.241945
-0.10166 0.454336 -0.241929
-0.103496 0.453867 -0.241914
-0.105312 0.453398 -0.241898
-0.107129 0.452969 -0.241882
-0.108926 0.4525 -0.241865
-0.110742 0.452012 -0.241847
-0.112539 0.451543 -0.24183
-0.114336 0.451074 -0.241811
-0.116152 0.450547 -0.241792
-0.117949 0.450039 -0.241773
-0.119766 0.449531 -0.241754
-0.121562 0.449004 -0.241734
-0.12334 0.448477 -0.241713
-0.125156 0.44793 -0.241692
-0.126914 0.447422 -0.24167
-0.128691 0.446855 -0.241649
-0.130508 0.446289 -0.241626
-0.132285 0.445723 -0.241603
-0.134023 0.445137 -0.24158
-0.135859 0.444531 -0.241556
-0.137598 0.443945 -0.241532
-0.139375 0.443359 -0.241507
-0.141113 0.442734 -0.241482
-0.14291 0.442148 -0.241457
-0.144629 0.441523 -0.241431
-0.146406 0.440859 -0.241404
-0.148164 0.440195 -0.241377
-0.149922 0.43957 -0.24135
-0.15168 0.438906 -0.241322
-0.153398 0.438262 -0.241294
-0.155156 0.437578 -0.241265
-0.156895 0.436875 -0.241236
-0.158652 0.436211 -0.241207
-0.160352 0.435508 -0.241177
-0.162129 0.434805 -0.241146
-0.163828 0.434121 -0.241115
-0.165527 0.433398 -0.241084
-0.167266 0.432676 -0.241052
-0.168984 0.431953 -0.24102
-0.170664 0.431191 -0.240987
-0.172383 0.430469 -0.240954
-0.174102 0.429688 -0.240921
-0.175781 0.428945 -0.240887
-0.1775 0.428164 -0.240853
-0.179199 0.427344 -0.240818
-0.180918 0.42668 -0.24084
-0.182637 0.426016 -0.240871
-0.184375 0.425332 -0.240903
-0.186152 0.424609 -0.240933
-0.187832 0.423945 -0.240964
-0.18959 0.423203 -0.240993
-0.191289 0.422539 -0.241022
-0.193027 0.421816 -0.241051
-0.194707 0.421055 -0.241079
-0.196445 0.420352 -0.241106
-0.198164 0.41959 -0.241133
-0.199883 0.418828 -0.241159
-0.201562 0.418086 -0.241185
-0.203262 0.417266 -0.24121
-0.20498 0.416523 -0.241235
-0.206641 0.415742 -0.241259
-0.20834 0.414941 -0.241283
-0.210039 0.414141 -0.241306
-0.211699 0.41334 -0.241328
-0.213398 0.41252 -0.24135
-0.215078 0.41168 -0.241371
-0.216738 0.410859 -0.241392
-0.218418 0.41002 -0.241413
-0.220098 0.40918 -0.241432
-0.221738 0.40832 -0.241451
-0.223398 0.407422 -0.24147
-0.225078 0.406602 -0.241488
-0.226699 0.405684 -0.241505
-0.22832 0.404805 -0.241522
-0.23 0.403945 -0.241539
-0.231602 0.403008 -0.241554
-0.233262 0.402109 -0.241569
-0.234883 0.401211 -0.241584
-0.236484 0.400273 -0.241598
-0.238145 0.399355 -0.241611
-0.239746 0.398398 -0.241624
-0.241328 0.397461 -0.241637
-0.243008 0.396484 -0.241649
-0.24457 0.395547 -0.24166
-0.246191 0.394551 -0.241671
-0.247773 0.393594 -0.241681
-0.249336 0.392617 -0.24169
-0.250918 0.391621 -0.241699
-0.2525 0.390625 -0.241708
-0.254102 0.389609 -0.241715
-0.255645 0.388613 -0.241723
-0.257246 0.387559 -0.241729
-0.258809 0.386562 -0.241735
-0.260371 0.385547 -0.241741
-0.261895 0.384473 -0.241746
-0.263457 0.383437 -0.241751
-0.265 0.382383 -0.241754
-0.266562 0.381289 -0.241758
-0.268066 0.380215 -0.24176
-0.269609 0.379141 -0.241763
-0.271113 0.378086 -0.241764
-0.272617 0.376992 -0.241765
-0.27416 0.375898 -0.241766
-0.275645 0.374805 -0.241765
-0.277148 0.373672 -0.241765
-0.278633 0.372539 -0.241763
-0.280156 0.371406 -0.241762
-0.281699 0.370312 -0.241782
-0.283262 0.369297 -0.241852
-0.284785 0.368281 -0.241921
-0.286348 0.367227 -0.24199
-0.28793 0.366152 -0.242058
-0.289453 0.365078 -0.242126
-0.291016 0.364062 -0.242193
-0.292559 0.362988 -0.242259
-0.294121 0.361875 -0.242325
-0.295645 0.360801 -0.24239
-0.297168 0.359687 -0.242455
-0.298633 0.358613 -0.242519
-0.300195 0.35748 -0.242582
-0.301699 0.356406 -0.242645
-0.303184 0.355254 -0.242707
-0.304707 0.354121 -0.242768
-0.30623 0.353008 -0.242829
-0.307695 0.351836 -0.24289
-0.309219 0.350664 -0.242949
-0.310684 0.349531 -0.243008
-0.312168 0.34834 -0.243067
-0.313613 0.347148 -0.243124
-0.315098 0.346016 -0.243181
-0.316563 0.344805 -0.243238
-0.318008 0.343594 -0.243294
-0.319473 0.342402 -0.243349
-0.320918 0.341211 -0.243404
-0.322324 0.34 -0.243458
-0.323809 0.33875 -0.243511
-0.325215 0.337539 -0.243564
-0.326641 0.33625 -0.243616
-0.328047 0.335039 -0.243667
-0.329453 0.333809 -0.243718
-0.33084 0.332539 -0.243768
-0.332266 0.33127 -0.243817
-0.333652 0.33 -0.243866
-0.335039 0.328711 -0.243914
-0.336465 0.327422 -0.243962
-0.337793 0.326133 -0.244008
-0.33918 0.324844 -0.244055
-0.340547 0.323535 -0.2441
-0.341914 0.322187 -0.244145
-0.343281 0.320879 -0.244189
-0.344609 0.31957 -0.244232
-0.345977 0.318242 -0.244275
-0.347305 0.316914 -0.244317
-0.348613 0.315566 -0.244359
-0.349961 0.314219 -0.2444
-0.35125 0.312852 -0.24444
-0.352578 0.311484 -0.244479
-0.353906 0.310117 -0.244518
-0.355195 0.30875 -0.244556
-0.356504 0.307324 -0.244594
-0.357754 0.305937 -0.24463
-0.359062 0.30457 -0.244667
-0.360312 0.303164 -0.244702
-0.361562 0.301758 -0.244737
-0.362852 0.300312 -0.244771
-0.364082 0.298945 -0.244804
-0.365352 0.2975 -0.244837
-0.366562 0.296055 -0.244869
-0.367832 0.294648 -0.2449
-0.369043 0.293203 -0.244931
-0.370273 0.291738 -0.24496
-0.371504 0.290273 -0.24499
-0.372695 0.288789 -0.245018
-0.373887 0.287344 -0.245046
-0.375781 0.286367 -0.245517
-0.377715 0.285469 -0.246027
-0.379629 0.284531 -0.246537
-0.381543 0.283594 -0.247045
-0.383457 0.282617 -0.247552
-0.38543 0.28166 -0.248057
-0.387324 0.280664 -0.248561
-0.389219 0.279668 -0.249064
-0.391152 0.278691 -0.249566
-0.393027 0.277656 -0.250066
-0.394922 0.276641 -0.250564
-0.396816 0.275586 -0.251061
-0.398711 0.274531 -0.251557
-0.400586 0.273457 -0.25205
-0.40248 0.272383 -0.252543
-0.404336 0.271289 -0.253033
-0.40623 0.270195 -0.253522
-0.408105 0.269062 -0.254009
-0.40998 0.26793 -0.254494
-0.411816 0.266797 -0.254977
-0.413633 0.265625 -0.255459
-0.415527 0.264453 -0.255938
-0.417344 0.263262 -0.256415
-0.41918 0.26207 -0.256891
-0.420996 0.260859 -0.257364
-0.422832 0.259648 -0.257836
-0.424629 0.258398 -0.258305
-0.426426 0.257187 -0.258772
-0.428203 0.255898 -0.259237
-0.43002 0.254648 -0.2597
-0.431797 0.253379 -0.26016
-0.433594 0.252051 -0.260618
-0.435352 0.250762 -0.261074
-0.43709 0.249453 -0.261527
-0.438867 0.248125 -0.261978
-0.440586 0.246777 -0.262426
-0.442363 0.245391 -0.262872
-0.444063 0.244043 -0.263315
-0.44582 0.242656 -0.263756
-0.44752 0.24125 -0.264194
-0.449238 0.239844 -0.264629
-0.450879 0.238457 -0.265061
-0.452598 0.237031 -0.265491
-0.454258 0.235586 -0.265918
-0.455918 0.234121 -0.266342
-0.457617 0.232656 -0.266763
-0.459238 0.231172 -0.267191
-0.461172 0.229824 -0.267761
-0.463066 0.228457 -0.268327
-0.464941 0.227031 -0.26889
-0.466836 0.225625 -0.269449
-0.468711 0.224219 -0.270004
-0.470566 0.222793 -0.270555
-0.472402 0.221367 -0.271102
-0.474219 0.219902 -0.271644
-0.476055 0.218418 -0.272182
-0.47791 0.216914 -0.272716
-0.479668 0.21543 -0.273246
-0.481465 0.213906 -0.273771
-0.483203 0.212363 -0.274291
-0.48498 0.21082 -0.274807
-0.495801 -0.280273 -0.304028
-0.493887 -0.281797 -0.303551
-0.491953 -0.283359 -0.303067
-0.490039 -0.284883 -0.30258
-0.488047 -0.286367 -0.302088
-0.486152 -0.287852 -0.301591
-0.48418 -0.289297 -0.301089
-0.482168 -0.290762 -0.300583
-0.480195 -0.292227 -0.300073
-0.478203 -0.293633 -0.299558
-0.476191 -0.295039 -0.299039
-0.47416 -0.296406 -0.298516
-0.472148 -0.297773 -0.297988
-0.470059 -0.29916 -0.297456
-0.468027 -0.300508 -0.29692
-0.465957 -0.301836 -0.29638
-0.463906 -0.303164 -0.295836
-0.461816 -0.304434 -0.295289
-0.465488 -0.30957 -0.298423
-0.470352 -0.315547 -0.302366
-0.475293 -0.321641 -0.30636
-0.480234 -0.327793 -0.310406
-0.485254 -0.334082 -0.314503
-0.490293 -0.340469 -0.318653
-0.495391 -0.346953 -0.322851
-0.500508 -0.353555 -0.327101
-0.505605 -0.360195 -0.3314
-0.510781 -0.367031 -0.335749
-0.369082 -0.359141 -0.274908
-0.36791 -0.360938 -0.275129
-0.366758 -0.362656 -0.275349
-0.365547 -0.364434 -0.275568
-0.364434 -0.366211 -0.275785
-0.363203 -0.36793 -0.276
-0.362012 -0.369668 -0.276214
-0.360781 -0.371406 -0.276427
-0.359551 -0.373164 -0.276638
-0.35834 -0.374883 -0.276848
-0.357109 -0.376602 -0.277055
-0.355859 -0.37832 -0.277262
-0.35457 -0.38002 -0.277467
-0.35332 -0.381719 -0.27767
-0.352031 -0.383398 -0.277872
-0.350742 -0.385098 -0.278072
-0.349453 -0.386797 -0.27827
-0.348145 -0.388457 -0.278467
-0.346816 -0.390156 -0.278662
-0.345469 -0.391797 -0.278856
-0.344121 -0.393438 -0.279048
-0.342793 -0.395098 -0.279238
-0.341426 -0.396758 -0.279427
-0.340059 -0.398379 -0.279614
-0.338672 -0.4 -0.279799
-0.337305 -0.401641 -0.279983
-0.335859 -0.403242 -0.280165
-0.334453 -0.404844 -0.280345
-0.333047 -0.406445 -0.280524
-0.331602 -0.408047 -0.2807
-0.330195 -0.409648 -0.280875
-0.32873 -0.411211 -0.281048
-0.327285 -0.412793 -0.28122
-0.325781 -0.414336 -0.281389
-0.324336 -0.415898 -0.281557
-0.322871 -0.417461 -0.281723
-0.321367 -0.418984 -0.281888
-0.319883 -0.420508 -0.28205
-0.318359 -0.422031 -0.282211
-0.316836 -0.423555 -0.28237
-0.315293 -0.425078 -0.282526
-0.313789 -0.426562 -0.282682
-0.312227 -0.428047 -0.282835
-0.310664 -0.429531 -0.282986
-0.309082 -0.431016 -0.283136
-0.3075 -0.432461 -0.283283
-0.305937 -0.433906 -0.283429
-0.304336 -0.435352 -0.283573
-0.302734 -0.436816 -0.283715
-0.301113 -0.438223 -0.283855
-0.299531 -0.439648 -0.283993
-0.297871 -0.441035 -0.284118
-0.296211 -0.442422 -0.284231
-0.294551 -0.44377 -0.284342
-0.292852 -0.445117 -0.284451
-0.291211 -0.446484 -0.284557
-0.289473 -0.447793 -0.284662
-0.287813 -0.449102 -0.284763
-0.286094 -0.45043 -0.284863
-0.284375 -0.451719 -0.28496
-0.282676 -0.453027 -0.285055
-0.280898 -0.454297 -0.285148
-0.27916 -0.455566 -0.285238
-0.277422 -0.456836 -0.285326
-0.275703 -0.458066 -0.285411
-0.273926 -0.459316 -0.285495
-0.272148 -0.460547 -0.285575
-0.270352 -0.461758 -0.285654
-0.268594 -0.462969 -0.28573
-0.266777 -0.46416 -0.285804
-0.265 -0.465352 -0.285875
-0.263145 -0.466523 -0.285944
-0.261348 -0.467676 -0.286011
-0.259531 -0.468828 -0.286075
-0.257715 -0.47 -0.286137
-0.255859 -0.471094 -0.286196
-0.254023 -0.472227 -0.286253
-0.252187 -0.47334 -0.286308
-0.250313 -0.474414 -0.28636
-0.248437 -0.475527 -0.286409
-0.246543 -0.476602 -0.286457
-0.244707 -0.477637 -0.286502
-0.242793 -0.478711 -0.286544
-0.240918 -0.479766 -0.286584
-0.239004 -0.480781 -0.286622
-0.23709 -0.481797 -0.286657
-0.235195 -0.482773 -0.28669
-0.233262 -0.483789 -0.28672
-0.231348 -0.484766 -0.286748
-0.229453 -0.485742 -0.286773
-0.2275 -0.48668 -0.286796
-0.225547 -0.487617 -0.286817
-0.223594 -0.488555 -0.286835
-0.221641 -0.489512 -0.28685
-0.219668 -0.490391 -0.286864
-0.217734 -0.491289 -0.286874
-0.215742 -0.492168 -0.286883
-0.21377 -0.493047 -0.286888
-0.211777 -0.493906 -0.286892
-0.209785 -0.494766 -0.286893
-0.207793 -0.495586 -0.286891
-0.20582 -0.496406 -0.286887
-0.203828 -0.497246 -0.286881
-0.201816 -0.498047 -0.286872
-0.199785 -0.498828 -0.28686
-0.197773 -0.49959 -0.286847
-0.195742 -0.500391 -0.28683
-0.193711 -0.501133 -0.286812
-0.191719 -0.501855 -0.286791
-0.189668 -0.502578 -0.286767
-0.187578 -0.503281 -0.286741
-0.185566 -0.503984 -0.286712
-0.183496 -0.504648 -0.286682
-0.181465 -0.505352 -0.286648
-0.179414 -0.506016 -0.286612
-0.177383 -0.50668 -0.286574
-0.175312 -0.507285 -0.286534
-0.173242 -0.50793 -0.28649
-0.171152 -0.508535 -0.286445
-0.169102 -0.509141 -0.286397
-0.167031 -0.509727 -0.286347
-0.164922 -0.510273 -0.286294
-0.162852 -0.510859 -0.286239
-0.160742 -0.511406 -0.286181
-0.158652 -0.511934 -0.286121
-0.156602 -0.512461 -0.286059
-0.154473 -0.512969 -0.286004
-0.15248 -0.513828 -0.286129
-0.150469 -0.514648 -0.286252
-0.148477 -0.515469 -0.286373
-0.146465 -0.51627 -0.286492
-0.144453 -0.51707 -0.286609
-0.142422 -0.517852 -0.286724
-0.140371 -0.518633 -0.286837
-0.138379 -0.519375 -0.286949
-0.136309 -0.520156 -0.287058
-0.134277 -0.520898 -0.287165
-0.132227 -0.521621 -0.28727
-0.130176 -0.522324 -0.287374
-0.128086 -0.523027 -0.287475
-0.126055 -0.523711 -0.287575
-0.124004 -0.524395 -0.287672
-0.121934 -0.525059 -0.287767
-0.119863 -0.525742 -0.287861
-0.117773 -0.526367 -0.287952
-0.115703 -0.526992 -0.288042
-0.113652 -0.527656 -0.288129
-0.111523 -0.528242 -0.288214
-0.109434 -0.528828 -0.288298
-0.107363 -0.529395 -0.288379
-0.105254 -0.52998 -0.288458
-0.103145 -0.530547 -0.288535
-0.101035 -0.531094 -0.28861
-0.0989062 -0.531602 -0.288683
-0.0968164 -0.532148 -0.288754
-0.094668 -0.532656 -0.288823
-0.0925781 -0.533184 -0.28889
-0.0904492 -0.533672 -0.288955
-0.0883398 -0.534141 -0.289018
-0.0861719 -0.53459 -0.289078
-0.0840625 -0.535039 -0.289137
-0.0819336 -0.535469 -0.289193
-0.0798047 -0.535918 -0.289248
-0.0776367 -0.536328 -0.289298
-0.0754687 -0.536621 -0.289298
-0.0733203 -0.536953 -0.289295
-0.0711719 -0.537227 -0.289291
-0.0690039 -0.537461 -0.289284
-0.0668555 -0.537734 -0.289276
-0.0646484 -0.537949 -0.289265
-0.0625195 -0.538203 -0.289252
-0.060332 -0.538398 -0.289237
-0.0581641 -0.538633 -0.28922
-0.0559766 -0.538828 -0.289202
-0.0538281 -0.539023 -0.28918
-0.0516406 -0.53918 -0.289158
-0.0494922 -0.539297 -0.289132
-0.0473437 -0.539492 -0.289105
-0.0451562 -0.539609 -0.289076
-0.0429492 -0.539707 -0.289045
-0.0408008 -0.539805 -0.289011
-0.0386523 -0.539941 -0.288976
-0.0364648 -0.54002 -0.288939
-0.0342578 -0.540078 -0.288899
-0.0320898 -0.540117 -0.288858
-0.0299219 -0.540156 -0.288815
-0.0277539 -0.540215 -0.288769
-0.0255664 -0.540234 -0.288721
-0.0233789 -0.540215 -0.288672
-0.0212305 -0.540234 -0.28862
-0.019043 -0.540176 -0.288566
-0.0168359 -0.540156 -0.288511
-0.014668 -0.540117 -0.288453
-0.0125 -0.540059 -0.288393
-0.0103516 -0.54 -0.288331
-0.00816406 -0.539883 -0.288268
-0.00601562 -0.539805 -0.288202
-0.00382812 -0.539688 -0.288135
-0.00164062 -0.53957 -0.288065
0.000507812 -0.539492 -0.288029
0.00267578 -0.539648 -0.2881
0.00486328 -0.539766 -0.288169
0.00703125 -0.539863 -0.288235
0.00919922 -0.539961 -0.2883
0.0113477 -0.540039 -0.288363
0.0135547 -0.540098 -0.288424
0.0156836 -0.540137 -0.288482
0.0178906 -0.540176 -0.288539
0.0200977 -0.540195 -0.288594
0.0222461 -0.540234 -0.288646
0.0244336 -0.540234 -0.288697
0.026582 -0.540195 -0.288746
0.0287891 -0.540195 -0.288792
0.030957 -0.540156 -0.288837
0.033125 -0.540117 -0.288879
0.035293 -0.540039 -0.28892
0.0374414 -0.539961 -0.288958
0.0396484 -0.539883 -0.288994
0.0418164 -0.539785 -0.289028
0.0440039 -0.539668 -0.289061
0.0461719 -0.539531 -0.289091
0.0483398 -0.539375 -0.289119
0.0505078 -0.539258 -0.289145
0.0527148 -0.539082 -0.289169
0.0548633 -0.538926 -0.289192
0.0570508 -0.53875 -0.289212
0.0591992 -0.538555 -0.289229
0.0613672 -0.53832 -0.289245
0.0635742 -0.538086 -0.289259
0.0656641 -0.537852 -0.289271
0.0678711 -0.537617 -0.28928
0.0700195 -0.537324 -0.289288
0.072207 -0.537051 -0.289294
0.0743555 -0.536797 -0.289297
0.0765039 -0.536484 -0.289299
0.0786523 -0.536133 -0.289274
0.0808203 -0.535684 -0.289221
0.0829102 -0.535273 -0.289165
0.0850586 -0.534805 -0.289108
0.0872266 -0.534355 -0.289048
0.0893359 -0.533887 -0.288987
0.0914453 -0.533418 -0.288923
0.0935742 -0.53293 -0.288857
0.0957031 -0.532402 -0.288789
0.097832 -0.531875 -0.288719
0.0999219 -0.531348 -0.288647
0.102031 -0.530801 -0.288573
0.104121 -0.530273 -0.288497
0.10627 -0.529687 -0.288419
0.10834 -0.529102 -0.288338
0.110391 -0.528535 -0.288256
0.11252 -0.52793 -0.288172
0.11459 -0.527344 -0.288086
0.116738 -0.52668 -0.287997
0.11875 -0.526055 -0.287907
0.120859 -0.525391 -0.287814
0.12293 -0.524727 -0.28772
0.124941 -0.524063 -0.287624
0.127051 -0.523359 -0.287525
0.129102 -0.522695 -0.287425
0.131152 -0.521953 -0.287323
0.133203 -0.52127 -0.287218
0.135234 -0.520508 -0.287112
0.137305 -0.519766 -0.287003
0.139297 -0.519023 -0.286893
0.141367 -0.518242 -0.286781
0.143398 -0.5175 -0.286667
0.14541 -0.51668 -0.286551
0.147422 -0.515898 -0.286433
0.149434 -0.515078 -0.286313
0.151445 -0.514219 -0.286191
0.153437 -0.513438 -0.286067
0.155469 -0.512695 -0.286027
0.157578 -0.512227 -0.286091
0.159629 -0.51168 -0.286152
0.161738 -0.511133 -0.286211
0.163848 -0.510547 -0.286267
0.165918 -0.51 -0.286321
0.167988 -0.509414 -0.286373
0.170078 -0.508828 -0.286422
0.172168 -0.508223 -0.286469
0.174199 -0.507637 -0.286513
0.176309 -0.506973 -0.286555
0.17834 -0.506348 -0.286594
0.18041 -0.505703 -0.286631
0.182441 -0.50502 -0.286666
0.184492 -0.504336 -0.286698
0.186562 -0.503633 -0.286728
0.188574 -0.502949 -0.286755
0.190586 -0.502227 -0.28678
0.192656 -0.501484 -0.286802
0.194648 -0.500742 -0.286822
0.196719 -0.499961 -0.286839
0.198711 -0.499219 -0.286854
0.200762 -0.498437 -0.286867
0.202773 -0.497617 -0.286877
0.204746 -0.496816 -0.286885
0.206719 -0.496016 -0.28689
0.20877 -0.495195 -0.286893
0.210742 -0.494336 -0.286893
0.212695 -0.493496 -0.286891
0.214687 -0.492617 -0.286886
0.21666 -0.491758 -0.286879
0.218633 -0.49082 -0.28687
0.220605 -0.489961 -0.286858
0.222559 -0.489023 -0.286843
0.224492 -0.488105 -0.286827
0.226445 -0.487168 -0.286807
0.228359 -0.48623 -0.286786
0.230332 -0.485234 -0.286761
0.232246 -0.484258 -0.286735
0.234141 -0.48332 -0.286706
0.236113 -0.482285 -0.286674
0.237988 -0.481289 -0.28664
0.239922 -0.480273 -0.286604
0.241836 -0.479219 -0.286565
0.243691 -0.478164 -0.286524
0.245566 -0.477109 -0.28648
0.247461 -0.476055 -0.286434
0.249316 -0.474961 -0.286386
0.251152 -0.473906 -0.286334
0.253027 -0.472773 -0.286281
0.254883 -0.47168 -0.286225
0.256719 -0.470566 -0.286167
0.258555 -0.469434 -0.286107
0.260371 -0.468242 -0.286044
0.262227 -0.467109 -0.285978
0.264023 -0.465937 -0.28591
0.26584 -0.464766 -0.28584
0.267637 -0.463555 -0.285768
0.269414 -0.462383 -0.285693
0.271191 -0.461172 -0.285616
0.272969 -0.459922 -0.285536
0.274727 -0.458691 -0.285454
0.276523 -0.457441 -0.28537
0.278262 -0.456211 -0.285283
0.28 -0.454922 -0.285194
0.281699 -0.453652 -0.285102
0.283477 -0.452383 -0.285008
0.285176 -0.451094 -0.284913
0.286895 -0.449766 -0.284814
0.288613 -0.448477 -0.284713
0.290293 -0.447148 -0.28461
0.291973 -0.445781 -0.284505
0.293672 -0.444453 -0.284397
0.295332 -0.443086 -0.284288
0.296992 -0.441758 -0.284175
0.298613 -0.440371 -0.284061
0.300254 -0.438945 -0.283924
0.301895 -0.43752 -0.283785
0.303516 -0.436094 -0.283644
0.305078 -0.434648 -0.283502
0.30666 -0.433184 -0.283357
0.308281 -0.431719 -0.28321
0.309824 -0.430254 -0.283062
0.311367 -0.428809 -0.282911
0.312969 -0.427266 -0.282759
0.314473 -0.42582 -0.282605
0.316016 -0.424297 -0.282449
0.31752 -0.422812 -0.282291
0.319043 -0.421289 -0.282131
0.320586 -0.419766 -0.281969
0.322031 -0.418223 -0.281806
0.323535 -0.41668 -0.281641
0.325039 -0.415137 -0.281474
0.326504 -0.413555 -0.281305
0.32793 -0.412012 -0.281135
0.329453 -0.41043 -0.280962
0.330879 -0.408828 -0.280788
0.332285 -0.407285 -0.280612
0.333691 -0.405664 -0.280435
0.335098 -0.404062 -0.280256
0.336543 -0.402422 -0.280074
0.33793 -0.40082 -0.279892
0.339297 -0.399219 -0.279707
0.340664 -0.397578 -0.279521
0.342051 -0.395938 -0.279333
0.343418 -0.394258 -0.279144
0.344746 -0.392617 -0.278953
0.346094 -0.390977 -0.27876
0.347422 -0.389297 -0.278565
0.34873 -0.387637 -0.278369
0.35002 -0.385957 -0.278172
0.351328 -0.384277 -0.277972
0.352617 -0.382578 -0.277772
0.353887 -0.380859 -0.277569
0.355176 -0.37916 -0.277365
0.356426 -0.377461 -0.277159
0.357676 -0.375742 -0.276952
0.358906 -0.374004 -0.276743
0.360137 -0.372305 -0.276533
0.361387 -0.370547 -0.276321
0.362578 -0.368809 -0.276108
0.363789 -0.367051 -0.275893
0.364922 -0.365352 -0.275677
0.366094 -0.363555 -0.275459
0.367246 -0.361797 -0.27524
0.368418 -0.360039 -0.275019
0.36957 -0.358262 -0.274797
0.508164 -0.363594 -0.33359
0.503008 -0.356875 -0.329265
0.497891 -0.350234 -0.324991
0.492812 -0.343711 -0.320766
0.487773 -0.337266 -0.316592
0.482773 -0.330957 -0.312469
0.477734 -0.324727 -0.308397
0.472813 -0.318613 -0.304377
0.467891 -0.312539 -0.300408
0.463047 -0.306602 -0.296491
0.462812 -0.303789 -0.295566
0.464902 -0.3025 -0.296112
0.466973 -0.301172 -0.296654
0.469004 -0.299844 -0.297192
0.471055 -0.298516 -0.297726
0.473105 -0.297109 -0.298256
0.475098 -0.295742 -0.298781
0.477129 -0.294336 -0.299303
0.47918 -0.29293 -0.299819
0.481152 -0.291484 -0.300332
0.483145 -0.290059 -0.30084
0.485078 -0.288594 -0.301344
0.487051 -0.287129 -0.301843
0.488984 -0.285605 -0.302338
0.490957 -0.284121 -0.302828
0.492891 -0.282578 -0.303313
0.494766 -0.281055 -0.303793
0.48123 0.16793 -0.272125
0.479941 0.169629 -0.27175
0.478574 0.171328 -0.27137
0.477187 0.172969 -0.270985
0.47582 0.174648 -0.270593
0.474434 0.176328 -0.270198
0.472988 0.17793 -0.269796
0.471562 0.17957 -0.26939
0.470156 0.181211 -0.268979
0.468672 0.182812 -0.268562
0.467363 0.184453 -0.268224
0.466035 0.186133 -0.26791
0.464746 0.187734 -0.267592
0.463437 0.189414 -0.26727
0.46207 0.191016 -0.266945
0.460762 0.192656 -0.266616
0.459395 0.194258 -0.266284
0.458066 0.195859 -0.265948
0.45666 0.197461 -0.26561
0.455312 0.199023 -0.265267
0.453887 0.200547 -0.264922
0.4525 0.202148 -0.264573
0.451074 0.203691 -0.264221
0.449629 0.205215 -0.263866
0.448203 0.206758 -0.263508
0.446758 0.208242 -0.263146
0.445273 0.209766 -0.262782
0.443809 0.211289 -0.262414
0.442363 0.212754 -0.262043
0.440859 0.214219 -0.26167
0.439355 0.215703 -0.261293
0.437871 0.217109 -0.260914
0.436328 0.218555 -0.260531
0.434805 0.219961 -0.260146
0.433281 0.221406 -0.259758
0.431719 0.222812 -0.259368
0.430176 0.22418 -0.258974
0.428574 0.225586 -0.258578
0.42707 0.226953 -0.258179
0.425449 0.22832 -0.257778
0.423887 0.229668 -0.257374
0.422285 0.230977 -0.256967
0.420684 0.232324 -0.256558
0.419062 0.233633 -0.256147
0.41748 0.234922 -0.255733
0.41584 0.23625 -0.255316
0.41418 0.2375 -0.254898
0.412578 0.238789 -0.254477
0.410918 0.24 -0.254054
0.409238 0.24127 -0.253628
0.407578 0.24252 -0.2532
0.405937 0.24375 -0.25277
0.404238 0.244941 -0.252338
0.402578 0.246133 -0.251904
0.400898 0.247344 -0.251468
0.39916 0.248516 -0.251029
0.39752 0.249668 -0.250589
0.395781 0.25082 -0.250147
0.394062 0.251953 -0.249702
0.392344 0.253086 -0.249256
0.390625 0.254219 -0.248809
0.388887 0.255293 -0.248359
0.387148 0.256406 -0.247907
0.38541 0.2575 -0.247454
0.383672 0.258555 -0.246999
0.381934 0.259629 -0.246542
0.380156 0.260664 -0.246084
0.378398 0.26168 -0.245624
0.376641 0.262734 -0.245163
0.374883 0.26375 -0.2447
0.373105 0.264766 -0.244235
0.371836 0.266094 -0.244104
0.370723 0.267578 -0.244083
0.369609 0.269043 -0.244062
0.368496 0.270508 -0.244039
0.367363 0.271953 -0.244016
0.36623 0.273359 -0.243992
0.365098 0.274844 -0.243968
0.363965 0.276289 -0.243942
0.362832 0.277715 -0.243916
0.36166 0.279102 -0.24389
0.360469 0.280586 -0.243863
0.359336 0.281953 -0.243835
0.358145 0.283379 -0.243806
0.356973 0.284805 -0.243777
0.355762 0.286191 -0.243747
0.35457 0.287578 -0.243717
0.353359 0.288945 -0.243686
0.352129 0.290352 -0.243654
0.350937 0.291719 -0.243621
0.349707 0.293066 -0.243588
0.348477 0.294453 -0.243555
0.347246 0.295801 -0.24352
0.345996 0.297129 -0.243485
0.344727 0.298477 -0.243449
0.343516 0.299844 -0.243413
0.342227 0.301172 -0.243376
0.340957 0.30248 -0.243338
0.339707 0.303828 -0.243299
0.338437 0.305117 -0.24326
0.337148 0.306406 -0.243221
0.335859 0.307734 -0.24318
0.334512 0.309023 -0.243139
0.333242 0.310293 -0.243098
0.331953 0.311621 -0.243055
0.330645 0.312891 -0.243013
0.329297 0.31416 -0.242969
0.327988 0.31543 -0.242925
0.32666 0.31668 -0.24288
0.325293 0.31791 -0.242834
0.323984 0.31918 -0.242788
0.322617 0.32041 -0.242742
0.321289 0.321641 -0.242694
0.319922 0.322852 -0.242646
0.318555 0.324102 -0.242598
0.317187 0.325312 -0.242548
0.31584 0.326484 -0.242499
0.314434 0.327715 -0.242448
0.313047 0.328906 -0.242397
0.31166 0.330059 -0.242345
0.310234 0.33125 -0.242293
0.308848 0.332441 -0.24224
0.307461 0.333594 -0.242186
0.306016 0.334727 -0.242132
0.304609 0.335898 -0.242077
0.303184 0.337051 -0.242022
0.301777 0.338184 -0.241966
0.300332 0.339316 -0.241909
0.298926 0.340449 -0.241852
0.297461 0.341562 -0.241794
0.295977 0.342656 -0.241735
0.29459 0.34377 -0.241676
0.293105 0.344863 -0.241617
0.291602 0.345937 -0.241557
0.290156 0.347051 -0.241496
0.288691 0.348125 -0.241434
0.287227 0.349199 -0.241372
0.285742 0.350234 -0.24131
0.284238 0.351289 -0.241246
0.282754 0.352344 -0.241183
0.28127 0.353398 -0.241118
0.279746 0.354414 -0.241053
0.278281 0.35543 -0.240988
0.276797 0.356465 -0.240921
0.275234 0.35748 -0.240855
0.273789 0.358516 -0.240829
0.272363 0.359609 -0.240831
0.270918 0.360742 -0.240833
0.269453 0.361836 -0.240835
0.268008 0.362891 -0.240836
0.266504 0.363965 -0.240836
0.265078 0.365039 -0.240836
0.263594 0.366094 -0.240835
0.262129 0.367168 -0.240834
0.260684 0.368223 -0.240832
0.25916 0.369258 -0.24083
0.257676 0.370293 -0.240827
0.256191 0.371309 -0.240823
0.254668 0.372344 -0.24082
0.253164 0.37334 -0.240815
0.25166 0.374375 -0.24081
0.250156 0.375352 -0.240804
0.248633 0.376348 -0.240798
0.247109 0.377324 -0.240791
0.245605 0.37832 -0.240784
0.244062 0.379297 -0.240776
0.242539 0.380234 -0.240768
0.240957 0.381211 -0.240759
0.239453 0.382168 -0.240749
0.237891 0.383086 -0.240739
0.236328 0.384043 -0.240729
0.234766 0.38498 -0.240717
0.233203 0.385879 -0.240706
0.23166 0.386797 -0.240694
0.230078 0.387715 -0.240681
0.228496 0.388594 -0.240667
0.226953 0.389531 -0.240654
0.225371 0.390391 -0.240639
0.223789 0.39127 -0.240624
0.222148 0.392129 -0.240609
0.220605 0.393008 -0.240593
0.219004 0.393867 -0.240576
0.217383 0.394688 -0.240559
0.21582 0.395547 -0.240542
0.21418 0.396387 -0.240523
0.212578 0.397227 -0.240504
0.210918 0.398008 -0.240485
0.209336 0.398867 -0.240465
0.207715 0.399648 -0.240445
0.206094 0.400469 -0.240424
0.204453 0.401211 -0.240403
0.202832 0.402031 -0.240381
0.201172 0.402812 -0.240358
0.19957 0.403555 -0.240335
0.19793 0.404336 -0.240312
0.19625 0.405078 -0.240288
0.194609 0.40582 -0.240263
0.192988 0.406562 -0.240238
0.191309 0.407266 -0.240212
0.189648 0.408008 -0.240186
0.187949 0.408711 -0.240159
0.186328 0.409453 -0.240132
0.184629 0.410117 -0.240104
0.182969 0.41082 -0.240076
0.181328 0.411504 -0.240047
0.179648 0.412168 -0.240017
0.177949 0.412852 -0.240009
0.176309 0.413633 -0.240044
0.174648 0.414414 -0.240078
0.173047 0.415195 -0.240112
0.171406 0.415918 -0.240146
0.169707 0.416641 -0.240179
0.168105 0.417383 -0.240211
0.166406 0.418125 -0.240244
0.164766 0.418867 -0.240275
0.163105 0.41957 -0.240307
0.161445 0.420273 -0.240338
0.159766 0.420977 -0.240368
0.158066 0.42166 -0.240398
0.156406 0.422344 -0.240428
0.154727 0.423008 -0.240457
0.153086 0.423711 -0.240486
0.151367 0.424336 -0.240514
0.149687 0.425 -0.240542
0.148008 0.425664 -0.24057
0.146309 0.426309 -0.240597
0.14459 0.426934 -0.240624
0.142852 0.427539 -0.24065
0.141191 0.428203 -0.240676
0.139492 0.428789 -0.240701
0.137773 0.429375 -0.240726
0.136074 0.42998 -0.240751
0.134336 0.430547 -0.240775
0.132617 0.431133 -0.240798
0.130898 0.431719 -0.240821
0.12918 0.432266 -0.240844
0.127422 0.432812 -0.240867
0.125723 0.433398 -0.240888
0.124004 0.433945 -0.24091
0.122266 0.434453 -0.240931
0.120527 0.435 -0.240951
0.11875 0.435469 -0.240972
0.117012 0.436016 -0.240991
0.115273 0.436484 -0.24101
0.113555 0.436992 -0.241029
0.111777 0.4375 -0.241048
0.110059 0.437969 -0.241066
0.108301 0.438437 -0.241083
0.106562 0.438906 -0.2411
0.104766 0.439355 -0.241117
0.103027 0.439805 -0.241133
0.10123 0.440234 -0.241149
0.0994922 0.440684 -0.241164
0.0977148 0.441094 -0.241178
0.095957 0.441523 -0.241193
0.0941406 0.441914 -0.241207
0.0924219 0.442305 -0.24122
0.0906445 0.442695 -0.241233
0.0888867 0.443105 -0.241246
0.0870898 0.443477 -0.241258
0.085293 0.443828 -0.241269
0.0835156 0.44418 -0.241281
0.0817188 0.444551 -0.241291
0.0799414 0.444883 -0.241302
0.0781836 0.445234 -0.241312
0.0763867 0.445547 -0.241321
0.0746094 0.445879 -0.24133
0.0728125 0.446172 -0.241338
0.0709961 0.446484 -0.241347
0.0692383 0.446797 -0.241354
0.0674414 0.44707 -0.241361
0.0656055 0.447344 -0.241368
0.0638477 0.447617 -0.241374
0.0620117 0.44791 -0.24138
0.0602344 0.448164 -0.241385
0.058457 0.448398 -0.24139
0.0566211 0.448652 -0.241396
0.0548242 0.448867 -0.241404
0.0530469 0.449121 -0.241412
0.0512305 0.449336 -0.24142
0.0494336 0.449531 -0.241427
0.0476172 0.449766 -0.241433
0.0457812 0.449941 -0.24144
0.0439844 0.450137 -0.241445
0.0421875 0.450352 -0.24145
0.0403906 0.450508 -0.241456
0.0385742 0.450664 -0.24146
0.0367383 0.450859 -0.241464
0.0349219 0.450977 -0.241467
0.0331055 0.451133 -0.24147
0.0312891 0.45125 -0.241473
0.0295117 0.451387 -0.241475
0.0276758 0.451523 -0.241477
0.0258789 0.451621 -0.241478
0.0240625 0.451719 -0.241479
0.0222461 0.451816 -0.241479
0.0204102 0.451875 -0.241479
0.0185742 0.451992 -0.241479
0.0167969 0.452031 -0.241478
0.0149414 0.45209 -0.241476
0.0131641 0.452148 -0.241475
0.0113477 0.452207 -0.241472
0.00953125 0.452227 -0.24147
0.00771484 0.452266 -0.241467
0.00591797 0.452285 -0.241463
