ply
format ascii 1.0
comment Created by Open3D
element vertex 1809
property float x
property float y
property float z
end_header
-7.38125 -27.7141 -1.35173
-7.26207 -27.7142 -1.3503
-7.14316 -27.7143 -1.34889
-7.02449 -27.7144 -1.34751
-6.90605 -27.7144 -1.34615
-6.82906 -27.8828 -1.35298
-7.11297 -29.5557 -1.43276
-6.98742 -29.5558 -1.43139
-6.86211 -29.5559 -1.43005
-4.74125 -31.8594 -1.5181
-4.60289 -31.8074 -1.51473
-4.46512 -31.7556 -1.5114
-4.32797 -31.704 -1.5081
-4.21691 -31.845 -1.51399
-4.26934 -33.2679 -1.58081
-0.926484 -7.45687 -0.354151
-0.893398 -7.43475 -0.352927
-0.860547 -7.41271 -0.351715
-0.827891 -7.3908 -0.350514
-0.795469 -7.36898 -0.349325
-0.763281 -7.34727 -0.348147
-0.727539 -7.28826 -0.34521
-0.686914 -7.17268 -0.339601
-0.654531 -7.13705 -0.337788
-0.622539 -7.10178 -0.335997
-0.590898 -7.06768 -0.334268
-0.559844 -7.03672 -0.332695
-0.529063 -7.00603 -0.331141
-0.498594 -6.97559 -0.329605
-0.468398 -6.94539 -0.328086
-0.43957 -6.93373 -0.327449
-0.411289 -6.92846 -0.327119
-0.383047 -6.92314 -0.326793
-0.354883 -6.91783 -0.326472
-0.326758 -6.91248 -0.326154
-0.298672 -6.90711 -0.325843
-0.270664 -6.9018 -0.325538
-0.242695 -6.89648 -0.325238
-0.214766 -6.89113 -0.324942
-0.186914 -6.88574 -0.324651
-0.159102 -6.88035 -0.324363
-0.131289 -6.87492 -0.32408
-0.103555 -6.86945 -0.3238
-0.0758594 -6.86396 -0.323525
-0.0482422 -6.85848 -0.323254
-0.0206641 -6.85295 -0.322987
0.006875 -6.85014 -0.322853
0.0344531 -6.85566 -0.323118
0.0620703 -6.86119 -0.323387
0.0897266 -6.86666 -0.32366
0.117422 -6.87213 -0.323937
0.145195 -6.87758 -0.324218
0.172969 -6.88299 -0.324504
0.200781 -6.88838 -0.324793
0.228711 -6.89375 -0.325087
0.256641 -6.89908 -0.325385
0.284648 -6.90439 -0.325687
0.312695 -6.90971 -0.325994
0.34082 -6.91506 -0.326309
0.368945 -6.92041 -0.326628
0.397188 -6.92572 -0.326951
0.42543 -6.931 -0.327279
0.45375 -6.93627 -0.327611
0.483398 -6.9602 -0.32883
0.513789 -6.99051 -0.330357
0.544375 -7.02107 -0.331902
0.575312 -7.05187 -0.333465
0.606602 -7.08393 -0.335094
0.638477 -7.11904 -0.336873
0.670625 -7.15447 -0.338675
0.703164 -7.19025 -0.3405
0.747187 -7.33619 -0.34755
0.779297 -7.35785 -0.348722
0.811641 -7.37961 -0.349905
0.844141 -7.40148 -0.3511
0.876914 -7.42344 -0.352306
0.909883 -7.44551 -0.353524
4.64246 -33.5049 -1.5942
4.55023 -31.8957 -1.5185
4.67754 -31.8711 -1.51821
4.80848 -31.8712 -1.51912
4.93961 -31.8713 -1.52006
5.0709 -31.8713 -1.52102
4.42301 -24.602 -1.17811
4.55531 -24.7656 -1.18681
4.67867 -24.874 -1.1929
4.78359 -24.8809 -1.19414
3.82602 -19.4775 -0.935539
3.90461 -19.4636 -0.935616
3.9709 -19.3895 -0.932812
4.10184 -19.6272 -0.945034
6.21047 -28.5679 -1.37788
6.31031 -28.4752 -1.37462
6.44156 -28.524 -1.37822
6.57348 -28.5731 -1.38186
6.70605 -28.6225 -1.38554
3.76027 -15.7638 -0.763806
6.97348 -28.722 -1.39303
7.87066 -31.8583 -1.54666
6.78344 -26.991 -1.31167
3.98137 -15.5765 -0.757737
3.88246 -14.939 -0.727481
3.92898 -14.8722 -0.724991
3.97984 -14.8231 -0.723368
4.03805 -14.8021 -0.723131
4.10313 -14.806 -0.724119
4.18113 -14.8552 -0.727346
9.82277 -29.7826 -1.47806
9.97461 -29.8392 -1.48284
9.89371 -28.0868 -1.40349
10.0865 -27.916 -1.39896
10.3817 -28.0258 -1.4086
10.5308 -28.0813 -1.41351
10.681 -28.1372 -1.41847
10.7477 -24.3898 -1.25618
10.8555 -24.3688 -1.25733
12.3716 -24.7648 -1.30473
14.87 -29.4691 -1.55571
14.3778 -27.9328 -1.48067
14.4892 -27.8733 -1.48059
14.6319 -27.8734 -1.48371
14.7751 -27.8735 -1.48686
14.919 -27.8736 -1.49005
7.89434 -13.8012 -0.749357
7.96523 -13.7962 -0.750819
8.01926 -13.7617 -0.75069
8.06852 -13.7191 -0.750131
8.13414 -13.7044 -0.751106
8.21637 -13.717 -0.753601
8.28176 -13.7009 -0.75454
8.45664 -13.864 -0.765388
17.2677 -28.0547 -1.55263
17.3021 -27.8592 -1.54565
17.4578 -27.8593 -1.54954
7.99297 -11.006 -0.641084
8.04187 -10.9803 -0.641465
8.07551 -10.9337 -0.640634
8.10512 -10.882 -0.639508
8.14754 -10.8476 -0.639409
8.19746 -10.8232 -0.639906
8.24754 -10.7989 -0.640424
8.29773 -10.7746 -0.640953
8.3493 -10.7518 -0.641591
8.41473 -10.7466 -0.643293
8.65426 -10.9615 -0.658234
8.00266 -6.02326 -0.472068
8.01684 -5.98363 -0.471483
8.05473 -5.96162 -0.472297
8.10754 -5.95041 -0.473987
8.10461 -5.89828 -0.472426
8.11492 -5.85607 -0.471654
8.13437 -5.82051 -0.47142
8.0257 -5.6941 -0.463791
8.03148 -5.64979 -0.462808
8.05398 -5.61736 -0.4628
8.09285 -5.59627 -0.463739
8.18254 -5.60979 -0.46758
8.18797 -5.56525 -0.466609
8.20492 -5.52869 -0.466305
8.23172 -5.49875 -0.466567
8.26996 -5.47635 -0.467483
8.1891 -5.37557 -0.461687
8.22738 -5.35352 -0.462629
18.6157 -10.5739 -1.00904
18.6059 -10.4696 -1.00621
18.5443 -10.337 -1.00062
18.5987 -10.2696 -1.00133
18.5857 -10.0683 -0.996236
18.5521 -9.76248 -0.98805
18.5537 -9.66828 -0.986057
18.5558 -9.57479 -0.984119
18.5474 -9.47617 -0.981641
18.5438 -9.38055 -0.979449
18.5304 -9.28043 -0.976766
18.6133 -7.86924 -0.952444
18.6125 -7.78086 -0.950795
18.5527 -7.66838 -0.946156
18.5813 -7.50588 -0.944508
18.5831 -6.99014 -0.935824
18.5528 -6.89375 -0.932823
18.5487 -6.80752 -0.931237
18.5433 -6.72107 -0.9296
7.97793 -2.15057 -0.389429
7.9582 -2.11098 -0.388051
7.8191 -2.04047 -0.380864
7.76082 -1.99197 -0.377632
7.74898 -1.95576 -0.37667
7.74992 -1.92289 -0.376337
7.76086 -1.89252 -0.376496
7.78297 -1.8648 -0.377202
7.82594 -1.84187 -0.378923
7.77879 -1.73203 -0.375601
7.78578 -1.70076 -0.375605
18.5849 -3.82557 -0.894289
18.5902 -3.74885 -0.893812
18.5899 -3.67107 -0.893081
18.5991 -0.186914 -0.87664
18.6209 -0.112266 -0.877635
18.6199 -0.0374023 -0.877574
18.6125 0.0374414 -0.877228
18.6026 0.860625 -0.877699
18.5969 0.935293 -0.877596
18.589 1.00982 -0.877408
18.6058 2.21686 -0.883113
18.5974 2.2917 -0.883143
4.40082 3.90367 -0.277258
4.27934 3.82676 -0.270571
4.18332 3.77129 -0.265456
4.15148 3.77293 -0.264395
4.11969 3.77439 -0.263335
4.08812 3.7758 -0.262285
4.05676 3.77719 -0.261246
4.02562 3.77854 -0.260218
3.99613 3.78119 -0.259292
3.97383 3.79043 -0.258827
3.95152 3.79959 -0.258367
3.92926 3.80871 -0.257912
3.90707 3.81779 -0.25746
3.88492 3.8268 -0.257013
3.86285 3.83578 -0.256571
3.84074 3.84465 -0.256129
3.81844 3.85316 -0.255672
3.79953 3.865 -0.255442
3.78473 3.88105 -0.255496
3.76992 3.89711 -0.255552
3.75512 3.91314 -0.255612
3.74031 3.9292 -0.255675
3.72543 3.94521 -0.255742
3.71055 3.96125 -0.255812
3.69566 3.97727 -0.255885
3.68078 3.9933 -0.255962
3.66582 4.0093 -0.256042
3.6502 4.02459 -0.256079
3.6343 4.03961 -0.256103
3.61844 4.05461 -0.25613
3.60254 4.06961 -0.25616
3.5866 4.08461 -0.256194
3.57066 4.09957 -0.256231
3.5557 4.11562 -0.256339
3.5425 4.13385 -0.256584
3.52926 4.15207 -0.256834
3.51602 4.17035 -0.257087
3.50273 4.18863 -0.257345
3.48867 4.20607 -0.257552
3.47422 4.22309 -0.257737
3.45973 4.24014 -0.257925
3.44523 4.25717 -0.258118
3.4307 4.27422 -0.258314
3.41664 4.29195 -0.258553
3.40824 4.31687 -0.259226
3.4048 4.34836 -0.260294
3.40168 4.38049 -0.261397
3.39848 4.41289 -0.262512
3.39664 4.44736 -0.263749
3.39758 4.4859 -0.265222
3.39855 4.52484 -0.266715
3.39949 4.56424 -0.268229
3.40051 4.60408 -0.269764
3.40148 4.64436 -0.271322
3.40246 4.68512 -0.272901
3.40348 4.72633 -0.274503
3.40449 4.76803 -0.276127
3.40547 4.81021 -0.277775
3.40652 4.85291 -0.279448
3.40758 4.89611 -0.281144
3.40855 4.93982 -0.282866
3.41133 4.98656 -0.284754
3.42844 5.05506 -0.287876
3.44586 5.125 -0.291068
4.70559 9.91293 -0.517173
4.6507 9.89979 -0.515507
4.59613 9.88668 -0.513858
4.54187 9.87365 -0.512228
4.48797 9.8607 -0.510616
4.43437 9.84779 -0.509021
4.38145 9.83564 -0.507478
4.3327 9.8323 -0.506403
4.2841 9.82896 -0.50534
4.23574 9.82562 -0.504288
4.18758 9.82228 -0.503249
4.13957 9.81894 -0.50222
4.09176 9.81559 -0.501204
4.04414 9.81223 -0.500198
3.99621 9.80766 -0.499143
3.95352 9.81559 -0.498733
3.91016 9.82174 -0.498243
3.86691 9.82787 -0.497761
3.82371 9.83395 -0.497287
3.78066 9.84019 -0.49683
3.73797 9.84705 -0.496414
3.69531 9.85389 -0.496006
3.6527 9.86072 -0.495606
3.61035 9.86801 -0.495239
3.56984 9.88014 -0.495124
3.52934 9.89227 -0.495017
3.48883 9.90438 -0.494917
3.44832 9.91646 -0.494823
3.40785 9.92852 -0.494738
3.36742 9.94057 -0.49466
3.32711 9.95309 -0.494613
3.2868 9.96557 -0.494572
3.26262 10.0276 -0.496998
3.2534 10.1376 -0.501797
3.24398 10.2497 -0.506698
3.23441 10.3641 -0.511703
3.22539 10.4832 -0.516941
3.22187 10.6235 -0.523216
3.22082 10.7758 -0.530075
3.2184 10.9276 -0.536901
3.21066 11.0653 -0.543028
3.20273 11.2062 -0.549305
3.20445 11.3852 -0.557441
3.1993 11.5446 -0.564615
3.2082 11.7602 -0.574522
3.2018 11.9254 -0.58196
3.22305 12.2001 -0.594728
4.86145 21.5272 -1.04015
4.76594 21.5065 -1.03821
4.67188 21.4905 -1.03652
4.57824 21.4752 -1.03489
4.48566 21.4638 -1.03346
4.39516 21.4611 -1.03248
4.3048 21.4585 -1.03151
4.21461 21.4558 -1.03056
4.12457 21.4531 -1.02962
4.03473 21.4504 -1.02871
3.94559 21.4509 -1.02796
3.85695 21.4534 -1.02733
3.76844 21.4559 -1.02671
3.68 21.4583 -1.02612
3.59168 21.4608 -1.02553
3.50344 21.4632 -1.02497
3.41676 21.4748 -1.02486
3.33043 21.4887 -1.02487
3.2443 21.5036 -1.02496
3.15867 21.5221 -1.02523
3.07848 21.5793 -1.02735
3.04871 22.0031 -1.04693
3.12898 23.2699 -1.1066
3.12578 23.9753 -1.13954
3.08559 24.4329 -1.16069
3.06453 25.0769 -1.19069
3.29664 27.9075 -1.32445
3.19746 28.0348 -1.32987
3.10777 28.2569 -1.3398
3.1025 29.2919 -1.38828
3.09602 30.3969 -1.44005
3.08973 31.5948 -1.4962
3.31238 35.3374 -1.67279
3.17195 35.3684 -1.67364
0.778125 15.7886 -0.745033
0.700703 15.4836 -0.730505
0.625234 15.1659 -0.715389
0.56168 15.0995 -0.712145
0.498828 15.0366 -0.709077
0.4375 15.0074 -0.707611
0.376602 14.9869 -0.706568
0.315898 14.9664 -0.705538
0.255469 14.9513 -0.704773
0.195195 14.9419 -0.704286
0.135039 14.9325 -0.703809
0.075 14.923 -0.703343
0.015 14.9158 -0.702994
-0.0449609 14.9182 -0.703112
-0.105 14.9277 -0.703571
-0.165156 14.9371 -0.704043
-0.225352 14.9466 -0.704527
-0.285625 14.9561 -0.705023
-0.346289 14.9765 -0.706045
-0.407031 14.997 -0.707082
-0.468047 15.0175 -0.708132
-0.530156 15.0661 -0.71052
-0.593398 15.1322 -0.713743
-0.660977 15.2854 -0.721088
-0.737109 15.5937 -0.735765
-4.09371 32.9478 -1.5648
-4.07656 31.7658 -1.50943
-4.19293 31.6635 -1.50536
-4.33113 31.7268 -1.50918
-4.22934 23.2559 -1.11405
-4.33848 23.323 -1.11809
-4.44047 23.3491 -1.12019
-4.09918 5.91516 -0.339187
-4.10352 5.87092 -0.337593
-4.11621 5.83889 -0.3367
-4.13352 5.81369 -0.336203
-4.15449 5.79373 -0.336011
-4.17887 5.77853 -0.3361
-4.2068 5.7682 -0.33648
-4.23918 5.76377 -0.337214
-4.20707 5.67225 -0.332845
-4.22504 5.64883 -0.332466
-4.25434 5.64057 -0.332983
-4.56246 -0.238633 -0.266096
-4.52109 -0.254707 -0.263741
-4.49582 -0.271426 -0.262328
-4.47738 -0.288379 -0.261318
-4.37746 -0.299609 -0.255555
-4.35777 -0.315879 -0.254478
-4.34781 -0.332715 -0.253972
-4.34344 -0.349941 -0.253795
-4.34375 -0.367559 -0.253897
-4.34918 -0.385645 -0.254305
-4.36242 -0.404492 -0.255173
-4.4307 -0.428809 -0.259265
-4.43379 -0.44709 -0.259549
-4.43902 -0.465645 -0.259964
-4.44684 -0.484551 -0.26053
-4.45766 -0.503887 -0.261283
-4.47262 -0.523769 -0.262282
-4.4943 -0.544648 -0.263676
-4.53117 -0.567598 -0.265973
-0.910859 -6.8784 -0.404118
-0.87875 -6.84752 -0.402092
-0.847969 -6.82475 -0.400552
-0.818437 -6.8109 -0.399543
-0.789062 -6.79711 -0.398545
-0.759883 -6.78338 -0.397557
-0.73082 -6.76969 -0.396579
-0.701875 -6.75605 -0.395612
-0.673047 -6.74244 -0.394654
-0.644375 -6.72891 -0.393706
-0.615859 -6.71539 -0.392768
-0.587422 -6.70102 -0.391784
-0.558828 -6.68396 -0.390654
-0.53043 -6.66699 -0.389535
-0.502187 -6.65012 -0.388427
-0.474141 -6.6333 -0.387331
-0.446953 -6.62738 -0.386876
-0.42 -6.62406 -0.386582
-0.393047 -6.62074 -0.386292
-0.366133 -6.6174 -0.386009
-0.339297 -6.61406 -0.385731
-0.312461 -6.61068 -0.385458
-0.285703 -6.60732 -0.385191
-0.258984 -6.60393 -0.384929
-0.232266 -6.60053 -0.384673
-0.205586 -6.59709 -0.384422
-0.178945 -6.59365 -0.384177
-0.152383 -6.59162 -0.38402
-0.125859 -6.59105 -0.383955
-0.099375 -6.59049 -0.383894
-0.0728516 -6.58986 -0.383839
-0.0463672 -6.58924 -0.383789
-0.0198828 -6.58861 -0.383744
0.00660156 -6.58828 -0.383723
0.033125 -6.58893 -0.383766
0.0596094 -6.58957 -0.383813
0.0860937 -6.59016 -0.383865
0.112617 -6.59076 -0.383923
0.139141 -6.59133 -0.383986
0.165664 -6.59189 -0.384054
0.192266 -6.59535 -0.384297
0.218945 -6.59875 -0.384545
0.245625 -6.60217 -0.384798
0.272344 -6.60557 -0.385057
0.299102 -6.60896 -0.385321
0.325898 -6.61234 -0.385591
0.352734 -6.6157 -0.385866
0.379609 -6.61902 -0.386147
0.406484 -6.62234 -0.386433
0.433398 -6.62566 -0.386725
0.460391 -6.62896 -0.387023
0.488125 -6.64154 -0.387868
0.516289 -6.6584 -0.38897
0.544609 -6.67531 -0.390083
0.573047 -6.6923 -0.391208
0.601641 -6.70852 -0.392294
0.630117 -6.72199 -0.393227
0.658711 -6.73553 -0.39417
0.687422 -6.7491 -0.395123
0.716289 -6.76271 -0.396086
0.745273 -6.77639 -0.397058
0.774453 -6.7901 -0.398041
0.80375 -6.80387 -0.399034
0.833125 -6.81766 -0.400038
0.862891 -6.83283 -0.401128
0.894609 -6.86182 -0.403037
4.57645 -24.8807 -1.47344
4.86789 -25.3192 -1.50168
3.81582 -19.4255 -1.15303
3.89922 -19.4369 -1.15462
3.9682 -19.3765 -1.15198
4.10746 -19.6541 -1.16945
3.81914 -15.1962 -0.912601
3.86516 -15.1219 -0.909068
3.92367 -15.0977 -0.908554
4.00504 -15.1602 -0.913271
4.05285 -15.0952 -0.910331
7.33625 -26.8922 -1.62353
7.4659 -26.9405 -1.62824
8.00223 -13.8603 -0.932152
8.0257 -13.7728 -0.928432
8.07453 -13.7294 -0.927684
8.13973 -13.7138 -0.928836
8.23105 -13.7415 -0.932949
8.3048 -13.739 -0.935039
7.92176 -11.0007 -0.789554
7.95172 -10.9492 -0.78815
8.01227 -10.9398 -0.789783
8.16684 -11.0573 -0.800635
8.18098 -10.9839 -0.797687
8.22043 -10.9447 -0.797233
8.24629 -10.8877 -0.79549
8.26488 -10.8215 -0.79308
8.3048 -10.7837 -0.792748
8.36203 -10.7682 -0.794074
8.62336 -11.013 -0.814677
8.66859 -10.9796 -0.814773
7.98293 -6.05887 -0.583706
7.98809 -6.01234 -0.582311
8.01824 -5.98469 -0.582752
8.10785 -5.95064 -0.585767
8.10039 -5.89521 -0.58351
8.10754 -5.85072 -0.582328
8.09 -5.78875 -0.579392
8.01941 -5.68963 -0.572692
8.03203 -5.65018 -0.571965
8.06363 -5.62408 -0.572602
8.11922 -5.61451 -0.574944
8.15531 -5.59113 -0.575903
8.19195 -5.56797 -0.576906
8.20594 -5.52938 -0.576321
8.22973 -5.49742 -0.576433
8.14977 -5.39678 -0.569309
8.18273 -5.37139 -0.570097
18.5927 -10.7595 -1.25115
18.589 -10.6578 -1.24801
18.573 -10.5496 -1.24408
18.5251 -10.4241 -1.23803
18.5583 -10.3448 -1.23749
18.5611 -10.2488 -1.23491
18.5639 -10.1531 -1.23237
18.5313 -9.84688 -1.22219
18.5414 -9.75688 -1.2203
18.5262 -9.65398 -1.21674
18.5111 -9.55168 -1.21322
18.5004 -9.45219 -1.21002
18.5024 -9.35959 -1.20768
18.505 -9.2677 -1.20541
18.5028 -9.17373 -1.20285
18.6048 -8.04258 -1.18052
18.5908 -7.94799 -1.1776
18.5782 -7.85439 -1.17479
18.5318 -7.74713 -1.1699
18.5701 -7.67559 -1.17034
18.5718 -7.58898 -1.16851
18.5742 -7.50299 -1.16675
18.5456 -7.31855 -1.16122
18.5446 -7.0609 -1.15574
18.5317 -6.97084 -1.15319
18.5204 -6.8817 -1.15075
18.5138 -6.79471 -1.14864
18.5134 -6.71023 -1.14693
18.5144 -6.6265 -1.14533
18.5167 -6.54348 -1.14383
7.96355 -2.1467 -0.480379
7.96055 -2.1116 -0.479686
7.79328 -2.03375 -0.469109
7.75734 -1.99109 -0.466459
7.74441 -1.95461 -0.465206
7.74219 -1.92098 -0.464605
7.74809 -1.88939 -0.464498
7.76164 -1.85969 -0.464859
7.78434 -1.83207 -0.465773
7.82172 -1.80771 -0.467573
7.77883 -1.73203 -0.464161
7.77066 -1.69746 -0.463261
7.79246 -1.66943 -0.464158
18.585 -3.90355 -1.10606
18.6136 -2.29367 -1.09231
18.6111 -2.21746 -1.09164
18.6014 -2.14051 -1.09056
18.5938 -2.06393 -1.08961
18.5432 -1.98289 -1.08618
18.5878 -1.91209 -1.08833
18.5883 -1.83666 -1.08792
18.5772 -1.7602 -1.08684
18.5622 -1.60832 -1.08518
18.5545 -1.38242 -1.08368
18.5588 -1.30775 -1.0836
18.5487 -1.23211 -1.08272
18.5107 -1.15488 -1.08022
18.5328 -1.08148 -1.08125
18.5297 -1.00658 -1.08082
18.5284 -0.931816 -1.08052
18.529 -0.857188 -1.08035
18.5184 -0.78209 -1.07954
18.5817 -0.410898 -1.08253
18.5686 -0.26127 -1.0816
18.5769 -0.0373242 -1.08199
18.5749 0.0373633 -1.08187
18.5729 0.112012 -1.08177
18.5703 0.186641 -1.08165
18.5641 0.26123 -1.08134
18.6197 1.83982 -1.08976
18.6096 1.91439 -1.08961
18.601 1.98908 -1.08956
18.594 2.06396 -1.08963
18.5456 2.13412 -1.08728
18.59 2.21498 -1.0904
18.5905 2.29086 -1.09096
18.5852 2.36609 -1.0912
18.584 2.44191 -1.0917
18.5551 2.7423 -1.09245
18.556 2.81871 -1.09317
18.5459 2.89348 -1.09324
18.5375 2.96855 -1.09344
18.5312 3.04398 -1.09378
18.5289 3.12016 -1.09438
4.54938 3.71977 -0.342269
4.45535 3.67285 -0.336302
4.39164 3.6501 -0.332599
4.33645 3.63377 -0.329522
4.28223 3.61775 -0.326504
4.23863 3.6102 -0.324282
4.1984 3.60516 -0.32231
4.16352 3.60437 -0.320741
4.12996 3.60449 -0.319271
4.09672 3.60459 -0.317819
4.06375 3.60469 -0.316384
4.03066 3.60437 -0.314932
3.9982 3.60437 -0.313525
3.97145 3.6093 -0.312563
3.94484 3.61418 -0.31161
3.91805 3.61871 -0.31064
3.89141 3.6232 -0.309681
3.86492 3.62768 -0.308731
3.83859 3.63209 -0.307792
3.81242 3.63648 -0.306863
3.78859 3.64297 -0.306123
3.76531 3.64984 -0.305426
3.74449 3.65898 -0.304928
3.72445 3.66871 -0.30449
3.70441 3.67844 -0.304058
3.68441 3.68812 -0.303631
3.66445 3.69775 -0.30321
3.64453 3.70738 -0.302795
3.62469 3.71695 -0.302384
3.60492 3.7265 -0.301979
3.58516 3.73602 -0.30158
3.56609 3.74617 -0.301241
3.55367 3.76334 -0.30147
3.54125 3.78051 -0.301702
3.52883 3.79768 -0.301939
3.51629 3.81488 -0.30218
3.50379 3.83209 -0.302425
3.49121 3.84932 -0.302675
3.47863 3.86656 -0.302928
3.46602 3.88381 -0.303186
3.45336 3.90109 -0.303449
3.44066 3.91838 -0.303715
3.42758 3.93523 -0.303952
3.41379 3.95141 -0.304136
3.40219 3.97014 -0.304523
3.39422 3.99318 -0.305242
3.38613 4.01633 -0.305968
3.37805 4.03955 -0.306702
3.37207 4.06547 -0.307638
3.36891 4.0951 -0.308852
3.36578 4.12494 -0.31008
3.36258 4.15506 -0.311324
3.36 4.18615 -0.31264
3.35871 4.21918 -0.314096
3.35742 4.25252 -0.31557
3.35609 4.28617 -0.317063
3.3548 4.32014 -0.318576
3.35344 4.35441 -0.320107
3.35207 4.38904 -0.32166
3.35066 4.42398 -0.323231
3.3493 4.45926 -0.324822
3.34785 4.49488 -0.326433
3.34641 4.53084 -0.328065
3.34496 4.56717 -0.329719
3.34344 4.60385 -0.331394
3.34195 4.6409 -0.333092
3.34043 4.67834 -0.334812
3.33891 4.71615 -0.336555
3.33734 4.75436 -0.338322
3.33578 4.79297 -0.340114
3.33418 4.83199 -0.341928
3.33254 4.87143 -0.343768
3.33094 4.91129 -0.345632
3.32926 4.95158 -0.347523
3.32758 4.9923 -0.34944
3.3275 5.0359 -0.351552
3.32773 5.08063 -0.353738
3.32805 5.1259 -0.355956
3.35078 5.20666 -0.360625
3.37828 5.29602 -0.365871
5.02047 9.94945 -0.649084
4.90645 9.82146 -0.639441
4.90129 9.91062 -0.643959
4.73711 9.67629 -0.62749
4.68309 9.66418 -0.625478
4.62941 9.65213 -0.623489
4.57617 9.64025 -0.621529
4.52355 9.62918 -0.619637
4.47129 9.61814 -0.617766
4.41926 9.60717 -0.615914
4.36914 9.59963 -0.614301
4.32141 9.59689 -0.613009
4.27387 9.59414 -0.611732
4.22652 9.59141 -0.610467
4.17855 9.58674 -0.609097
4.12758 9.57471 -0.607273
4.07691 9.56271 -0.605468
4.02652 9.55076 -0.603681
3.98125 9.55047 -0.602647
3.94176 9.56381 -0.602484
3.90227 9.57713 -0.602329
3.86281 9.59041 -0.602183
3.82332 9.60365 -0.602046
3.78125 9.61012 -0.601492
3.7391 9.61627 -0.600932
3.69703 9.6224 -0.600382
3.655 9.62854 -0.599841
3.61309 9.63459 -0.59931
3.5732 9.64609 -0.599127
3.53352 9.65795 -0.598976
3.49383 9.66978 -0.598834
3.45418 9.68158 -0.598701
3.41473 9.69393 -0.598609
3.37523 9.70623 -0.598528
3.33578 9.71853 -0.598454
3.29633 9.73082 -0.59839
3.25691 9.74307 -0.598333
3.23023 9.7942 -0.60067
3.2102 9.86656 -0.604312
3.20426 9.98455 -0.610745
3.19879 10.107 -0.617444
3.08074 9.87166 -0.602306
3.06566 9.96408 -0.607188
3.17301 10.4624 -0.636774
3.16875 10.6017 -0.644466
3.16449 10.7446 -0.652378
3.16059 10.8928 -0.660598
3.15223 11.0294 -0.668112
3.14371 11.1692 -0.675809
3.13492 11.3123 -0.683697
3.12875 11.469 -0.692401
3.12078 11.6235 -0.700968
3.11457 11.7896 -0.710221
3.11148 11.9725 -0.720483
3.11668 12.1936 -0.733029
4.92711 21.8181 -1.30276
4.83504 21.8182 -1.3016
4.74316 21.8184 -1.30046
4.63062 21.721 -1.29353
4.53945 21.7212 -1.29244
4.44844 21.7213 -1.29138
4.35758 21.7215 -1.29034
4.26684 21.7217 -1.28932
4.17625 21.7219 -1.28833
4.08582 21.7221 -1.28735
3.99551 21.7222 -1.2864
3.90531 21.7224 -1.28547
3.81527 21.7226 -1.28456
3.72535 21.7228 -1.28367
3.63555 21.7229 -1.28281
3.54586 21.723 -1.28197
3.45625 21.7232 -1.28114
3.43523 22.1648 -1.30636
3.29215 21.8208 -1.2853
3.2025 21.8209 -1.28454
3.11293 21.821 -1.2838
3.04871 22.003 -1.29377
3.07871 22.8962 -1.34555
3.06254 23.4906 -1.37975
3.04902 24.1437 -1.41738
3.06453 25.0767 -1.47141
3.25832 28.5683 -1.6747
3.14148 28.563 -1.67364
0.826992 15.5113 -0.904711
0.75332 15.2861 -0.891392
0.684102 15.1169 -0.881357
0.620937 15.0614 -0.877971
0.558711 15.0194 -0.875383
0.496875 14.9776 -0.872824
0.435664 14.9452 -0.870824
0.375117 14.928 -0.869731
0.314922 14.9189 -0.869116
0.254727 14.9097 -0.868518
0.194648 14.9004 -0.867922
0.134687 14.8932 -0.867461
0.0748047 14.8898 -0.867241
0.0149219 14.8865 -0.867036
-0.0449219 14.8881 -0.867136
-0.104766 14.8915 -0.867348
-0.164687 14.8956 -0.867622
-0.224727 14.905 -0.868216
-0.284844 14.9142 -0.868811
-0.345 14.9234 -0.869419
-0.405352 14.9349 -0.870175
-0.466133 14.9565 -0.87154
-0.527773 14.9982 -0.874085
-0.589844 15.0401 -0.876658
-0.652227 15.0834 -0.879328
-0.718086 15.1907 -0.885743
-0.789023 15.3804 -0.896984
-0.868359 15.6939 -0.915461
-4.22637 23.2397 -1.37576
-4.3343 23.3006 -1.38038
-4.43539 23.3222 -1.38271
-4.10719 5.92668 -0.419974
-4.10934 5.8792 -0.417777
-4.12133 5.84617 -0.416606
-4.13844 5.82064 -0.415967
-4.15941 5.80061 -0.415728
-4.18395 5.78555 -0.41585
-4.21227 5.77566 -0.416353
-4.24535 5.77219 -0.417329
-4.20039 5.66314 -0.410663
-4.22184 5.64455 -0.410542
-4.25789 5.64529 -0.411838
-4.55758 -0.238398 -0.316591
-4.51789 -0.254531 -0.313903
-4.49312 -0.27127 -0.312257
-4.475 -0.288223 -0.311072
-4.3707 -0.299141 -0.303906
-4.35297 -0.315527 -0.302758
-4.34398 -0.332422 -0.302224
-4.34043 -0.349707 -0.30207
-4.34172 -0.367383 -0.302261
-4.34855 -0.385586 -0.302843
-4.36488 -0.404727 -0.304093
-4.42934 -0.428672 -0.308697
-4.43254 -0.446953 -0.309045
-4.43789 -0.465527 -0.309548
-4.44578 -0.484434 -0.310229
-4.4568 -0.50377 -0.311137
-4.47203 -0.523711 -0.312346
-4.4941 -0.544629 -0.314037
-4.5325 -0.567754 -0.316876
-0.951758 -6.76869 -0.474164
-0.906719 -6.64189 -0.465021
-0.877813 -6.62891 -0.463862
-0.849023 -6.61596 -0.462714
-0.820391 -6.60307 -0.461578
-0.791914 -6.59021 -0.460453
-0.763359 -6.57537 -0.459197
-0.734766 -6.55912 -0.457852
-0.706289 -6.54295 -0.456521
-0.678047 -6.52684 -0.455203
-0.649961 -6.5108 -0.453899
-0.621992 -6.4948 -0.452607
-0.59418 -6.47891 -0.451329
-0.566523 -6.46309 -0.450064
-0.539062 -6.4473 -0.448811
-0.511719 -6.4316 -0.44757
-0.484492 -6.41596 -0.446342
-0.458203 -6.41057 -0.445835
-0.432109 -6.40754 -0.445501
-0.406016 -6.40449 -0.445173
-0.38 -6.40145 -0.444851
-0.354062 -6.39904 -0.444581
-0.328242 -6.39867 -0.44446
-0.302461 -6.39828 -0.444345
-0.276641 -6.39787 -0.444236
-0.250859 -6.39746 -0.444133
-0.225117 -6.39701 -0.444036
-0.199336 -6.39656 -0.443945
-0.173594 -6.39607 -0.443859
-0.147852 -6.39557 -0.44378
-0.122148 -6.39506 -0.443706
-0.0964063 -6.39451 -0.443638
-0.0707031 -6.39396 -0.443576
-0.045 -6.39338 -0.44352
-0.0192578 -6.39279 -0.44347
0.00640625 -6.39248 -0.443447
0.0321094 -6.39309 -0.443494
0.0578125 -6.39365 -0.443547
0.0835547 -6.39422 -0.443606
0.109258 -6.39477 -0.443671
0.135 -6.39531 -0.443741
0.160703 -6.39582 -0.443818
0.186484 -6.39629 -0.4439
0.212227 -6.39676 -0.443988
0.237969 -6.39723 -0.444082
0.26375 -6.39766 -0.444182
0.289531 -6.39807 -0.444288
0.315352 -6.39846 -0.4444
0.341133 -6.39883 -0.444518
0.367031 -6.39986 -0.444689
0.393008 -6.40293 -0.445008
0.419062 -6.40598 -0.445333
0.445156 -6.40898 -0.445664
0.47125 -6.41201 -0.446001
0.498086 -6.42361 -0.446944
0.525312 -6.4393 -0.448178
0.552734 -6.45504 -0.449424
0.580312 -6.47084 -0.450683
0.608047 -6.4867 -0.451955
0.635898 -6.50262 -0.45324
0.663945 -6.51863 -0.454538
0.692148 -6.53471 -0.455849
0.720508 -6.55086 -0.457173
0.748984 -6.56707 -0.458511
0.777695 -6.58336 -0.459862
0.806133 -6.5965 -0.461004
0.834687 -6.60938 -0.462134
0.863359 -6.62227 -0.463276
0.892187 -6.63523 -0.464429
0.925391 -6.67846 -0.467711
3.80402 -19.3657 -1.36907
3.87711 -19.3266 -1.3674
3.98391 -19.4531 -1.37747
4.00223 -19.1505 -1.35717
3.89453 -16.0406 -1.14507
3.88426 -15.7223 -1.12345
3.82699 -15.2276 -1.08919
3.87191 -15.1482 -1.08462
4.00504 -15.1602 -1.08774
4.03156 -15.0157 -1.07853
4.08094 -14.726 -1.06004
8.00031 -13.8569 -1.10996
8.02594 -13.7732 -1.10583
8.07707 -13.7337 -1.10526
8.14672 -13.7256 -1.10723
8.25512 -13.7817 -1.11442
8.23656 -11.1517 -0.961724
8.2352 -11.0566 -0.956373
8.2702 -11.0109 -0.955286
8.2268 -10.8619 -0.945222
8.2525 -10.8054 -0.943178
8.29641 -10.7728 -0.943241
8.3593 -10.7647 -0.945464
7.98004 -6.05666 -0.694965
8.00309 -6.02359 -0.694855
8.11352 -6.00518 -0.700231
8.11117 -5.95311 -0.697956
8.1198 -5.90934 -0.696647
8.12285 -5.86178 -0.694883
7.99902 -5.72367 -0.682318
8.00637 -5.68037 -0.68099
8.03332 -5.65105 -0.681342
8.14215 -5.67885 -0.688633
8.1652 -5.64627 -0.688656
8.20145 -5.62273 -0.689802
8.19277 -5.56852 -0.687185
8.18637 -5.51619 -0.684782
8.12355 -5.42652 -0.677699
8.13285 -5.38555 -0.676661
18.5577 -10.6398 -1.48393
18.5591 -10.5417 -1.48063
18.5497 -10.438 -1.47653
18.546 -10.3379 -1.47291
18.5405 -10.2374 -1.4692
18.507 -9.64398 -1.44769
18.4968 -9.54432 -1.44387
18.4894 -9.44654 -1.44032
18.4867 -9.35166 -1.43717
18.4863 -9.25832 -1.43424
18.5813 -8.03238 -1.40426
18.5689 -7.93861 -1.40091
18.5586 -7.84611 -1.39774
18.5518 -7.75545 -1.39487
18.5496 -7.66711 -1.39238
18.5503 -7.58021 -1.39013
18.5402 -7.48926 -1.3871
18.5734 -7.24338 -1.38295
18.5204 -7.05168 -1.37474
18.5086 -6.96217 -1.37178
18.4986 -6.87365 -1.36898
18.4925 -6.78691 -1.3665
18.4911 -6.70217 -1.36439
18.4919 -6.61846 -1.36247
18.4818 -6.53115 -1.35978
18.5386 -5.1576 -1.33487
7.96254 -2.14643 -0.572079
7.96801 -2.11357 -0.571859
7.77875 -1.99658 -0.557106
7.76047 -1.95867 -0.555226
7.75539 -1.92424 -0.554305
7.75914 -1.89211 -0.554023
7.77055 -1.86184 -0.554303
7.79043 -1.83352 -0.555189
7.82176 -1.80773 -0.5569
7.88184 -1.78824 -0.56066
7.76211 -1.69561 -0.551157
7.7684 -1.66428 -0.551125
18.5176 -3.65678 -1.30938
18.5944 -2.29133 -1.29965
18.5829 -2.21408 -1.29821
18.5714 -2.13705 -1.2968
18.5616 -2.06035 -1.29553
18.5579 -1.98447 -1.2947
18.5588 -1.90912 -1.29422
18.5607 -1.83396 -1.29383
18.5627 -1.75883 -1.29346
18.6157 -1.61295 -1.29621
18.5896 -1.53541 -1.29395
18.481 -1.45166 -1.28597
18.4763 -1.3766 -1.28526
18.3784 -1.29504 -1.27808
18.5202 -1.23021 -1.28758
18.5092 -1.15479 -1.28648
18.5003 -1.07959 -1.28555
18.4986 -1.00488 -1.28514
18.4999 -0.930391 -1.28496
18.5018 -0.855937 -1.28484
18.5037 -0.781484 -1.28475
18.5497 -0.410176 -1.28711
18.5019 -0.0371875 -1.28348
18.4974 0.0371875 -1.28317
18.4954 0.111543 -1.28305
18.4934 0.185879 -1.28295
18.4914 0.260215 -1.28288
18.4894 0.334531 -1.28282
18.4782 0.408633 -1.28215
18.4853 0.483145 -1.28277
18.5209 0.707676 -1.28573
18.5259 1.08111 -1.28733
18.5029 1.37859 -1.2871
18.5928 1.7617 -1.29556
18.5929 1.83715 -1.29607
18.5817 1.9115 -1.29581
18.5709 1.98586 -1.29561
18.5621 2.06043 -1.29557
18.5605 2.13582 -1.29604
18.5616 2.21158 -1.29673
18.5634 2.28752 -1.29749
18.5596 2.36283 -1.29787
18.4819 2.65561 -1.29526
18.4834 2.7317 -1.29612
18.5299 2.81473 -1.30017
18.5186 2.88922 -1.30018
18.5084 2.96391 -1.30029
18.5012 3.03906 -1.30063
18.5004 3.11535 -1.30144
18.5013 3.19205 -1.3024
18.5032 3.26902 -1.30345
18.4932 3.34398 -1.30368
4.55641 3.57516 -0.401765
4.47539 3.54072 -0.395871
4.40496 3.51389 -0.390887
4.35297 3.50115 -0.38752
4.31203 3.49684 -0.385122
4.27156 3.49258 -0.382759
4.23156 3.48836 -0.380428
4.19203 3.48418 -0.378131
4.15844 3.48461 -0.376361
4.12531 3.4852 -0.374629
4.09215 3.48545 -0.372887
4.05926 3.4857 -0.371164
4.02668 3.48594 -0.369463
3.99539 3.48705 -0.367875
3.9691 3.4923 -0.366742
3.94293 3.49752 -0.365622
3.91691 3.50268 -0.364514
3.89105 3.50781 -0.363418
3.86516 3.51271 -0.362312
3.83926 3.51746 -0.361207
3.81348 3.52217 -0.360113
3.79008 3.52889 -0.359241
3.76723 3.53596 -0.358415
3.74441 3.54299 -0.357598
3.72172 3.54996 -0.35679
3.6991 3.55689 -0.35599
3.67789 3.56506 -0.355324
3.65832 3.57473 -0.35482
3.63879 3.58437 -0.354322
3.61934 3.594 -0.353831
3.59992 3.60355 -0.353346
3.58055 3.61311 -0.352867
3.56219 3.62359 -0.352491
3.54461 3.63484 -0.352195
3.52703 3.64602 -0.351903
3.50949 3.65721 -0.351617
3.49262 3.66898 -0.351398
3.47582 3.68086 -0.351193
3.45902 3.69271 -0.350993
3.44223 3.70451 -0.350798
3.42543 3.71631 -0.350608
3.40871 3.72809 -0.350424
3.39305 3.74107 -0.35036
3.37887 3.75566 -0.350451
3.36465 3.77025 -0.350548
3.35043 3.78484 -0.35065
3.34207 3.80609 -0.351369
3.33969 3.83436 -0.352738
3.33844 3.86416 -0.354241
3.33711 3.8942 -0.355762
3.33582 3.92449 -0.357303
3.33449 3.95506 -0.358861
3.3332 3.98588 -0.36044
3.33184 4.01697 -0.362037
3.33047 4.04834 -0.363654
3.3291 4.08 -0.365292
3.32766 4.11191 -0.366949
3.32629 4.14414 -0.368628
3.32484 4.17664 -0.370328
3.3234 4.20943 -0.372048
3.32195 4.24254 -0.373791
3.32047 4.27596 -0.375556
3.31898 4.30969 -0.377343
3.31746 4.34373 -0.379153
3.31594 4.37809 -0.380986
3.31437 4.41279 -0.382844
3.31281 4.44781 -0.384724
3.31117 4.48316 -0.386628
3.30957 4.51887 -0.388556
3.30793 4.55492 -0.390509
3.30625 4.59133 -0.392488
3.30457 4.62811 -0.394494
3.30289 4.66525 -0.396526
3.30117 4.70279 -0.398585
3.29937 4.7407 -0.400671
3.29762 4.77904 -0.402786
3.29582 4.81775 -0.404929
3.29402 4.85689 -0.407102
3.29219 4.89643 -0.409303
3.29031 4.93641 -0.411536
3.28844 4.9768 -0.413798
3.28648 5.01764 -0.416092
3.29 5.06729 -0.419109
3.2982 5.12492 -0.422775
3.29273 5.16187 -0.424727
3.29215 5.20709 -0.427354
3.2916 5.25283 -0.43002
3.29105 5.29916 -0.432727
3.29051 5.34607 -0.435475
3.30062 5.41109 -0.439688
4.76719 9.44756 -0.734087
4.71453 9.4373 -0.731811
4.66219 9.42709 -0.72956
4.61012 9.41691 -0.727332
4.55836 9.40678 -0.725127
4.50688 9.39666 -0.722946
4.45574 9.3866 -0.720787
4.40488 9.37654 -0.718651
4.35684 9.37193 -0.716949
4.30598 9.36082 -0.714769
4.25543 9.34977 -0.712613
4.20516 9.33875 -0.710478
4.1552 9.32775 -0.708366
4.10555 9.31682 -0.706275
4.05613 9.3059 -0.704206
4.00703 9.29504 -0.702159
3.9668 9.30447 -0.701663
3.9282 9.31762 -0.701458
3.88965 9.33074 -0.701262
3.85105 9.34383 -0.701077
3.81254 9.35689 -0.700901
3.77398 9.36992 -0.700735
3.73547 9.38291 -0.700579
3.69695 9.3959 -0.700432
3.65801 9.40775 -0.700215
3.61691 9.41395 -0.699588
3.57746 9.42416 -0.699272
3.53855 9.43586 -0.69908
3.49969 9.44754 -0.698897
3.46078 9.45922 -0.698725
3.42195 9.47084 -0.698562
3.38312 9.48244 -0.698409
3.3443 9.49402 -0.698266
3.30547 9.50557 -0.698133
3.26676 9.51742 -0.698033
3.22812 9.52947 -0.697959
3.20566 9.58982 -0.70143
3.18359 9.65268 -0.705086
3.16129 9.71619 -0.708791
3.13461 9.76752 -0.71161
3.10383 9.80689 -0.713564
3.07176 9.84291 -0.715281
3.03891 9.87709 -0.716871
3.00582 9.91111 -0.718457
2.97242 9.94482 -0.720028
2.95184 10.0225 -0.724789
3.12012 10.7533 -0.776724
3.11336 10.8934 -0.785934
3.10598 11.0353 -0.79526
3.0984 11.1805 -0.804822
3.09625 11.3499 -0.816112
3.09387 11.5233 -0.827685
3.08613 11.6817 -0.838163
3.07234 11.8219 -0.847329
3.06391 11.9873 -0.85829
3.07879 12.2505 -0.876241
4.85844 21.9237 -1.55775
4.76574 21.9222 -1.55627
4.67324 21.9208 -1.55482
4.66004 22.2982 -1.58025
3.30453 21.9027 -1.53658
3.21438 21.9017 -1.5356
3.12434 21.9007 -1.53464
3.04871 22.0029 -1.54092
0.817852 15.3401 -1.06565
0.746914 15.1558 -1.05264
0.681914 15.0681 -1.04634
0.619414 15.0252 -1.04318
0.557383 14.9825 -1.04005
0.495547 14.9375 -1.03679
0.434453 14.9042 -1.03435
0.374297 14.895 -1.0336
0.31418 14.8858 -1.03286
0.25418 14.8761 -1.03211
0.194258 14.8698 -1.03161
0.134453 14.8664 -1.03133
0.0746875 14.863 -1.03106
0.0149219 14.861 -1.03091
-0.0448047 14.8617 -1.03096
-0.10457 14.8647 -1.03119
-0.164375 14.8681 -1.03146
-0.224219 14.8715 -1.03175
-0.28418 14.8811 -1.03249
-0.344258 14.8904 -1.03322
-0.404414 14.8996 -1.03397
-0.464805 14.9138 -1.03507
-0.526484 14.9608 -1.03847
-0.588359 15.0035 -1.04159
-0.650625 15.0463 -1.04474
-0.713281 15.0894 -1.04792
-0.78168 15.2367 -1.05836
-0.856016 15.4704 -1.07482
-4.22113 6.14379 -0.517094
-4.11969 5.94477 -0.501733
-4.11488 5.88717 -0.498264
-4.12496 5.85129 -0.496626
-4.14082 5.82396 -0.495715
-4.16074 5.80248 -0.495308
-4.18426 5.78598 -0.49533
-4.21129 5.77432 -0.495778
-4.1682 5.66725 -0.48802
-4.18941 5.64838 -0.48784
-4.22461 5.64824 -0.489292
-4.5534 -0.238164 -0.367111
-4.51484 -0.254355 -0.364084
-4.49051 -0.271094 -0.362206
-4.47262 -0.288066 -0.360851
-4.45879 -0.305176 -0.359834
-4.37551 -0.317148 -0.353213
-4.35082 -0.332949 -0.351326
-4.34301 -0.349922 -0.350803
-4.34285 -0.36748 -0.350909
-4.35117 -0.38582 -0.351704
-4.42664 -0.410449 -0.357931
-4.42793 -0.428535 -0.358175
-4.43121 -0.446836 -0.358584
-4.43672 -0.46541 -0.359177
-4.44477 -0.484316 -0.359983
-4.45598 -0.503691 -0.361051
-4.47145 -0.523633 -0.362474
-4.49398 -0.544609 -0.364473
-4.5341 -0.567969 -0.367909
-1.00988 -6.78592 -0.552377
-0.958359 -6.62252 -0.538759
-0.913086 -6.49355 -0.527964
-0.883711 -6.47342 -0.526033
-0.855195 -6.45809 -0.524504
-0.826836 -6.44283 -0.522991
-0.798633 -6.42766 -0.521494
-0.770586 -6.41258 -0.520014
-0.742695 -6.39756 -0.518551
-0.715 -6.38264 -0.517104
-0.687422 -6.36777 -0.515672
-0.659961 -6.35299 -0.514256
-0.632695 -6.33828 -0.512856
-0.605586 -6.32365 -0.511471
-0.578633 -6.3091 -0.510101
-0.551758 -6.29463 -0.508746
-0.525078 -6.2802 -0.507407
-0.498789 -6.2691 -0.506344
-0.473086 -6.26439 -0.505806
-0.447539 -6.26127 -0.505404
-0.422031 -6.25814 -0.50501
-0.396562 -6.255 -0.504625
-0.371133 -6.25187 -0.504248
-0.345742 -6.24875 -0.50388
-0.320391 -6.24563 -0.50352
-0.295117 -6.24252 -0.503169
-0.269805 -6.23937 -0.502826
-0.24457 -6.23627 -0.502491
-0.219375 -6.23314 -0.502165
-0.194141 -6.23004 -0.501846
-0.168984 -6.22689 -0.501537
-0.143867 -6.22379 -0.501235
-0.118789 -6.22068 -0.500942
-0.0937109 -6.21756 -0.500656
-0.0687109 -6.21445 -0.500379
-0.0437109 -6.21133 -0.50011
-0.0187109 -6.20822 -0.49985
0.00625 -6.2077 -0.499805
0.0312109 -6.20977 -0.499977
0.0562109 -6.21285 -0.500242
0.0812109 -6.21598 -0.500515
0.106289 -6.2191 -0.500796
0.131328 -6.22221 -0.501085
0.156445 -6.22533 -0.501383
0.181602 -6.22844 -0.501688
0.206758 -6.23156 -0.502002
0.231914 -6.23469 -0.502325
0.257148 -6.23781 -0.502655
0.282422 -6.24092 -0.502994
0.307734 -6.24404 -0.503341
0.333047 -6.24717 -0.503697
0.358437 -6.25029 -0.504061
0.383828 -6.25342 -0.504433
0.409297 -6.25652 -0.504814
0.434766 -6.25967 -0.505204
0.460273 -6.26279 -0.505602
0.485859 -6.26594 -0.506008
0.511758 -6.27291 -0.506733
0.538398 -6.28727 -0.508065
0.565156 -6.30172 -0.509412
0.59207 -6.31625 -0.510774
0.619102 -6.33084 -0.512151
0.646328 -6.34551 -0.513544
0.673672 -6.36025 -0.514952
0.701133 -6.37506 -0.516375
0.728789 -6.38994 -0.517815
0.756602 -6.40492 -0.51927
0.78457 -6.41998 -0.520741
0.812656 -6.4351 -0.52223
0.840937 -6.45031 -0.523734
0.869414 -6.46561 -0.525255
0.898008 -6.48098 -0.526793
0.933477 -6.54346 -0.532171
0.983477 -6.70109 -0.54531
4.03273 -20.1022 -1.65075
3.95902 -19.3315 -1.58876
3.97945 -15.8341 -1.31451
3.85098 -15.0664 -1.25205
3.90297 -15.0179 -1.24931
4.0098 -15.1782 -1.26398
4.00562 -14.9192 -1.24375
4.10246 -14.5756 -1.21913
7.98539 -13.8311 -1.28587
8.01852 -13.7604 -1.28228
8.07105 -13.7235 -1.28185
8.14059 -13.7152 -1.28413
8.23145 -13.7422 -1.28974
8.30691 -13.7425 -1.2929
8.29867 -11.1418 -1.11856
8.33324 -11.0949 -1.1172
8.39523 -11.0843 -1.11952
8.23871 -10.7873 -1.09286
8.27039 -10.739 -1.09133
8.33848 -10.7379 -1.09461
7.98289 -6.05883 -0.806891
8.13473 -6.02082 -0.814838
8.11855 -5.95852 -0.810813
8.13332 -5.9192 -0.809908
8.16383 -5.89133 -0.810577
7.9875 -5.71541 -0.790783
7.97816 -5.66037 -0.787601
7.99852 -5.6266 -0.787369
8.04164 -5.60877 -0.789391
8.13879 -5.62803 -0.7967
8.17207 -5.6026 -0.797746
8.17859 -5.55889 -0.796195
8.09777 -5.45648 -0.786185
8.10117 -5.41156 -0.784399
8.26129 -5.47061 -0.797765
7.89504 -2.19646 -0.659803
7.89066 -2.16111 -0.658703
7.91707 -2.13416 -0.660188
18.493 -4.90541 -1.54043
7.85094 -2.04877 -0.653279
7.83637 -2.01137 -0.651388
7.80461 -1.9698 -0.648085
7.79074 -1.93303 -0.646282
7.77199 -1.89523 -0.644089
7.75984 -1.85926 -0.642458
7.76242 -1.82691 -0.642057
7.77688 -1.79734 -0.64265
7.80797 -1.77148 -0.644624
7.70762 -1.71619 -0.635769
7.73 -1.68857 -0.637047
18.4685 -3.87906 -1.51942
18.4679 -3.80148 -1.51809
18.4621 -3.56879 -1.51397
18.5589 -2.21125 -1.50481
18.5629 -2.13607 -1.50443
18.5558 -2.05971 -1.50318
18.5515 -1.98375 -1.50216
18.5495 -1.90816 -1.50137
18.5366 -1.83158 -1.49972
18.5026 -1.22906 -1.493
18.5014 -1.1543 -1.49251
18.4949 -1.07928 -1.49163
18.4913 -1.00447 -1.491
18.4896 -0.929863 -1.49055
18.4771 -0.854785 -1.48925
18.5094 -0.26043 -1.49041
18.4993 0.111562 -1.48947
18.4789 0.854902 -1.4894
18.4687 1.22684 -1.49026
18.5634 1.90963 -1.5025
18.5632 1.98504 -1.50312
18.5568 2.05986 -1.50325
18.5532 2.135 -1.50364
18.5473 2.20988 -1.50387
18.5008 2.88643 -1.50759
18.5016 2.96279 -1.50862
18.4958 3.03818 -1.50912
18.4928 3.11408 -1.50989
18.4793 3.18824 -1.50982
4.60844 3.46859 -0.464396
4.52543 3.43473 -0.45742
4.4466 3.40314 -0.450831
4.39035 3.3882 -0.446509
4.34934 3.38449 -0.443715
4.30879 3.38084 -0.440961
4.26871 3.37721 -0.438246
4.2291 3.37361 -0.435569
4.19105 3.3709 -0.43304
4.15715 3.37125 -0.430935
4.12371 3.3717 -0.428869
4.09055 3.37213 -0.426829
4.05773 3.37254 -0.424814
4.0252 3.37295 -0.422823
3.99418 3.37439 -0.420987
3.96777 3.37953 -0.419634
3.94152 3.38463 -0.418296
3.91547 3.38967 -0.416972
3.88973 3.39484 -0.415681
3.86441 3.40023 -0.414435
3.8393 3.40559 -0.413203
3.81426 3.41084 -0.411977
3.79129 3.41785 -0.41098
3.76875 3.4251 -0.410026
3.74633 3.43232 -0.409083
3.72398 3.43947 -0.40815
3.70172 3.4466 -0.407226
3.67953 3.45369 -0.406312
3.65746 3.46072 -0.405407
3.63551 3.46771 -0.404512
3.61395 3.475 -0.403662
3.59488 3.48459 -0.403097
3.57598 3.4943 -0.402551
3.55871 3.50549 -0.40219
3.54145 3.51666 -0.401834
3.52422 3.52781 -0.401485
3.50703 3.53891 -0.401142
3.48984 3.55 -0.400806
3.47266 3.56105 -0.400475
3.45551 3.57211 -0.40015
3.43883 3.58357 -0.399885
3.42238 3.59527 -0.399651
3.40602 3.60691 -0.399422
3.39117 3.62027 -0.399386
3.37723 3.63459 -0.399466
3.36285 3.6484 -0.399495
3.34797 3.66168 -0.399471
3.33309 3.67492 -0.399452
3.31816 3.68818 -0.399439
3.31129 3.71047 -0.40041
3.31082 3.74006 -0.402161
3.31027 3.76988 -0.403935
3.30902 3.79914 -0.405641
3.30723 3.82805 -0.407305
3.30543 3.85719 -0.408989
3.30363 3.88662 -0.410698
3.30219 3.91672 -0.412473
3.30074 3.94707 -0.414268
3.29922 3.9777 -0.416087
3.29777 4.00859 -0.417927
3.29621 4.03975 -0.41979
3.29473 4.07117 -0.421677
3.29316 4.10289 -0.423586
3.2916 4.13488 -0.42552
3.29 4.16715 -0.427477
3.28844 4.19973 -0.429459
3.2868 4.2326 -0.431466
3.28516 4.26578 -0.433499
3.28348 4.29926 -0.435557
3.28184 4.33307 -0.437642
3.28012 4.36719 -0.439752
3.2784 4.40164 -0.441891
3.27668 4.43641 -0.444056
3.27488 4.4715 -0.446248
3.27312 4.50695 -0.448468
3.27125 4.54273 -0.450717
3.26945 4.57889 -0.452995
3.26754 4.61539 -0.455304
3.26566 4.65227 -0.457642
3.26375 4.68951 -0.460012
3.26184 4.72715 -0.462414
3.25988 4.76518 -0.464847
3.25785 4.80359 -0.467314
3.25586 4.8424 -0.469814
3.25379 4.88164 -0.472347
3.25176 4.92129 -0.474915
3.25871 4.97521 -0.478851
3.26656 5.03115 -0.482966
3.27449 5.08803 -0.487161
3.28086 5.14332 -0.491189
3.26996 5.17193 -0.49266
3.26535 5.21096 -0.49512
3.26465 5.25666 -0.49821
3.26395 5.30293 -0.50135
3.2632 5.34977 -0.504535
3.26242 5.39721 -0.507768
3.26164 5.44525 -0.511051
3.26086 5.49393 -0.514385
3.25844 5.54043 -0.517507
3.25832 5.59162 -0.521062
3.25824 5.64352 -0.524672
3.28828 5.74871 -0.533219
3.36141 5.93176 -0.54894
3.43156 6.11275 -0.56441
3.45164 6.20684 -0.57181
3.4832 6.3233 -0.581244
3.53227 6.47383 -0.593773
4.79715 8.96264 -0.818479
4.73355 8.92998 -0.813752
4.68215 8.91943 -0.811068
4.63445 8.91549 -0.80901
4.58699 8.91154 -0.806971
4.53973 8.90756 -0.804951
4.4934 8.9049 -0.803072
4.44766 8.90305 -0.801287
4.40211 8.90117 -0.799519
4.35672 8.89928 -0.797769
4.31148 8.89734 -0.796036
4.26645 8.89539 -0.794319
4.2216 8.89338 -0.792618
4.17691 8.89135 -0.790934
4.13242 8.8893 -0.789266
4.08809 8.88719 -0.787615
4.04461 8.88656 -0.786111
4.00129 8.88596 -0.784629
3.96195 8.89394 -0.783921
3.92309 8.90273 -0.783301
3.88473 8.91266 -0.782794
3.84645 8.92254 -0.782296
3.80816 8.93236 -0.781809
3.76992 8.94213 -0.781332
3.73168 8.95186 -0.780865
3.69352 8.96152 -0.780407
3.65539 8.97117 -0.77996
3.61727 8.98076 -0.779523
3.57938 8.99084 -0.779143
3.54207 9.0023 -0.778896
3.5048 9.01373 -0.778659
3.4675 9.0251 -0.778431
3.43027 9.03644 -0.778213
3.39344 9.04891 -0.778106
3.35699 9.06242 -0.778101
3.32055 9.07588 -0.778104
3.28406 9.08928 -0.778114
3.24941 9.1076 -0.77856
3.22668 9.16006 -0.781928
3.20367 9.21293 -0.785336
3.18055 9.26623 -0.788784
3.15715 9.31998 -0.792272
3.13359 9.3742 -0.795803
3.11734 9.4518 -0.801321
3.11258 9.56643 -0.809972
3.10883 9.68715 -0.819128
3.10684 9.81637 -0.828991
3.10461 9.94816 -0.839061
3.10187 10.0818 -0.84927
3.10035 10.2229 -0.860099
3.0975 10.3632 -0.870855
3.09418 10.506 -0.881795
3.09148 10.6546 -0.89322
3.08398 10.7907 -0.903583
3.07633 10.9299 -0.914202
3.0709 11.0814 -0.925828
3.0716 11.2594 -0.939666
3.07113 11.4387 -0.953589
3.06242 11.5921 -0.965345
3.05168 11.7425 -0.976838
3.04449 11.9113 -0.989853
3.04449 12.1141 -1.00568
0.815664 15.2998 -1.23359
0.746641 15.1504 -1.22129
0.681367 15.0561 -1.21346
0.61875 15.0085 -1.20942
0.556562 14.9612 -1.20541
0.494766 14.9142 -1.20146
0.433867 14.8831 -1.1988
0.37375 14.873 -1.19786
0.313711 14.8629 -1.19694
0.253789 14.8529 -1.19604
0.193945 14.8473 -1.19552
0.134258 14.8458 -1.19534
0.0745703 14.8443 -1.19519
0.0148828 14.8428 -1.19505
-0.0448047 14.8436 -1.19512
-0.104453 14.8451 -1.19526
-0.16418 14.8466 -1.19543
-0.223906 14.8486 -1.19565
-0.28375 14.8579 -1.19648
-0.34375 14.8679 -1.19739
-0.403828 14.878 -1.19832
-0.464062 14.8905 -1.19947
-0.525625 14.9374 -1.20341
-0.587617 14.9845 -1.20739
-0.650039 15.032 -1.21141
-0.712812 15.0791 -1.21543
-0.781016 15.2238 -1.22734
-0.857305 15.4938 -1.24937
-4.20117 6.11467 -0.597317
-4.22199 6.0924 -0.596795
-4.12887 5.90713 -0.580266
-4.13398 5.86414 -0.577672
-4.14758 5.8335 -0.57629
-4.16605 5.80988 -0.575608
-4.18187 5.78266 -0.574571
-4.14148 5.67863 -0.565884
-4.15891 5.65463 -0.565154
-4.19176 5.65154 -0.566526
-4.33699 5.79852 -0.583
-4.52977 -0.255176 -0.415936
-4.50086 -0.271719 -0.41338
-4.48086 -0.288594 -0.411644
-4.46586 -0.305645 -0.410375
-4.35434 -0.315625 -0.400241
-4.33648 -0.331855 -0.398721
-4.33055 -0.348926 -0.3983
-4.33199 -0.366562 -0.398564
-4.34285 -0.385078 -0.399705
-4.43195 -0.410937 -0.40805
-4.43348 -0.429043 -0.408349
-4.43711 -0.447422 -0.408846
-4.44312 -0.466074 -0.40957
-4.45195 -0.485117 -0.410559
-4.46445 -0.504648 -0.411896
-4.48227 -0.524902 -0.413732
-4.51023 -0.546562 -0.416512
-1.02695 -6.71527 -0.622797
-0.975781 -6.55687 -0.607737
-0.938437 -6.4849 -0.600711
-0.905039 -6.43633 -0.59587
-0.876562 -6.42119 -0.594137
-0.848281 -6.40611 -0.592423
-0.820195 -6.39113 -0.590728
-0.792227 -6.37623 -0.589052
-0.764453 -6.36141 -0.587394
-0.736797 -6.34666 -0.585753
-0.709297 -6.33199 -0.584131
-0.681992 -6.3174 -0.582527
-0.654805 -6.30285 -0.58094
-0.627734 -6.2884 -0.579371
-0.60082 -6.27402 -0.577818
-0.574219 -6.26139 -0.576438
-0.54832 -6.25516 -0.575655
-0.522461 -6.24893 -0.574883
-0.49668 -6.24268 -0.574123
-0.471094 -6.23814 -0.573526
-0.445664 -6.23504 -0.573071
-0.420273 -6.23195 -0.572626
-0.394883 -6.22885 -0.572192
-0.36957 -6.22574 -0.571766
-0.344297 -6.22266 -0.57135
-0.319063 -6.21957 -0.570944
-0.293828 -6.21648 -0.570547
-0.268672 -6.21338 -0.57016
-0.243516 -6.21029 -0.569782
-0.218437 -6.20721 -0.569413
-0.193359 -6.20412 -0.569054
-0.16832 -6.20102 -0.568704
-0.143281 -6.19793 -0.568363
-0.11832 -6.19484 -0.568032
-0.0933594 -6.19178 -0.56771
-0.0684375 -6.18895 -0.56742
-0.0435156 -6.18645 -0.567172
-0.0186719 -6.18396 -0.566933
0.00621094 -6.18271 -0.566816
0.0310547 -6.18519 -0.56705
0.0559375 -6.18766 -0.567293
0.0808594 -6.1902 -0.56755
0.10582 -6.19328 -0.567868
0.130781 -6.19637 -0.568194
0.155781 -6.19947 -0.56853
0.18082 -6.20254 -0.568875
0.205898 -6.20563 -0.56923
0.230977 -6.20873 -0.569594
0.256094 -6.21182 -0.569967
0.28125 -6.2149 -0.570349
0.306445 -6.21799 -0.570742
0.33168 -6.22109 -0.571143
0.356953 -6.22418 -0.571554
0.382266 -6.22728 -0.571975
0.407578 -6.23035 -0.572405
0.43293 -6.23346 -0.572844
0.458359 -6.23656 -0.573294
0.483789 -6.23967 -0.573753
0.509531 -6.24572 -0.574496
0.535352 -6.25195 -0.575262
0.56125 -6.2582 -0.57604
0.587422 -6.26674 -0.577037
0.614258 -6.28109 -0.578581
0.64125 -6.29551 -0.580141
0.66832 -6.30998 -0.581719
0.695586 -6.32455 -0.583315
0.723008 -6.33918 -0.584928
0.750586 -6.35389 -0.586559
0.778281 -6.36869 -0.588208
0.806172 -6.38355 -0.589875
0.834219 -6.39848 -0.591561
0.862383 -6.4135 -0.593265
0.890742 -6.42859 -0.594988
0.921172 -6.45713 -0.597968
0.955703 -6.51201 -0.6034
1.00086 -6.63385 -0.615058
3.90004 -16.0633 -1.51543
3.86582 -15.1245 -1.43116
4.0098 -15.1782 -1.43924
4.09547 -14.5508 -1.38581
7.98648 -13.833 -1.46436
8.02145 -13.7654 -1.46061
8.07562 -13.7312 -1.46042
8.14809 -13.7278 -1.46353
8.2352 -13.7484 -1.46923
8.32277 -11.1742 -1.27736
8.34984 -11.117 -1.27464
8.40488 -11.0971 -1.27623
8.17684 -10.7063 -1.23505
8.20781 -10.6578 -1.23325
8.26945 -10.649 -1.23607
8.12758 -5.96512 -0.924263
8.13746 -5.92221 -0.922674
8.16387 -5.89135 -0.922973
8.14945 -5.83129 -0.918688
8.10609 -5.75111 -0.911184
8.10684 -5.70279 -0.908684
8.12078 -5.66396 -0.907689
8.14473 -5.63213 -0.907827
8.17914 -5.60746 -0.909143
8.17227 -5.55457 -0.905889
8.18781 -5.51715 -0.905145
8.22129 -5.4918 -0.906402
7.83656 -2.04504 -0.742499
7.82449 -2.00832 -0.740583
7.82645 -1.97533 -0.740011
7.79402 -1.93385 -0.736204
7.75926 -1.89213 -0.732194
7.75223 -1.85742 -0.730823
7.75766 -1.8258 -0.730635
7.77473 -1.79686 -0.731557
7.81059 -1.77209 -0.734253
7.70773 -1.71621 -0.723931
7.7227 -1.68697 -0.724693
4.64043 3.37719 -0.526161
4.55109 3.34023 -0.517546
4.47008 3.3085 -0.509844
4.3977 3.28236 -0.503089
4.35711 3.27945 -0.49995
4.31703 3.27652 -0.496856
4.27738 3.27363 -0.493806
4.23961 3.27182 -0.490959
4.20398 3.27139 -0.488354
4.16965 3.2717 -0.485892
4.13656 3.27266 -0.483562
4.10375 3.27361 -0.48126
4.07125 3.27453 -0.478986
4.03852 3.27504 -0.476682
4.00496 3.27461 -0.474273
3.97871 3.27992 -0.472722
3.95375 3.28611 -0.471321
3.92797 3.29146 -0.46982
3.9023 3.29678 -0.468334
3.8768 3.30205 -0.466863
3.85145 3.30725 -0.465409
3.82625 3.31242 -0.46397
3.8016 3.31793 -0.462595
3.77762 3.32385 -0.461297
3.7548 3.33064 -0.460145
3.73246 3.3377 -0.459039
3.71012 3.34469 -0.457945
3.68789 3.3516 -0.456861
3.66578 3.35852 -0.45579
3.64375 3.36537 -0.454729
3.6218 3.37219 -0.45368
3.59996 3.37896 -0.45264
3.57895 3.38643 -0.451708
3.56215 3.39775 -0.451307
3.54461 3.40834 -0.450816
3.52707 3.41889 -0.450332
3.50961 3.42941 -0.449856
3.49211 3.43988 -0.449386
3.47469 3.45035 -0.448925
3.45727 3.4608 -0.44847
3.43992 3.47119 -0.448023
3.42258 3.48158 -0.447583
3.40523 3.49191 -0.44715
3.38891 3.50322 -0.446848
3.37348 3.51545 -0.446676
3.35887 3.52855 -0.446619
3.34434 3.5416 -0.446568
3.32973 3.55467 -0.446523
3.31512 3.56771 -0.446485
3.30051 3.58074 -0.446452
3.28586 3.59379 -0.446426
3.28227 3.61893 -0.447908
3.28164 3.6476 -0.449819
3.28102 3.6765 -0.451753
3.28035 3.70566 -0.453711
3.27973 3.73506 -0.455693
3.27902 3.76471 -0.4577
3.27773 3.79393 -0.459645
3.27582 3.82266 -0.461529
3.27387 3.85164 -0.463434
3.27195 3.88084 -0.465362
3.26996 3.91029 -0.467314
3.26797 3.93998 -0.469289
3.26594 3.96992 -0.471288
3.26398 4.00021 -0.473319
3.2623 4.03117 -0.475425
3.26066 4.06238 -0.477557
3.25895 4.09387 -0.479715
3.25727 4.12564 -0.4819
3.25551 4.1577 -0.484112
3.25375 4.19004 -0.486352
3.25195 4.2227 -0.48862
