ply
format ascii 1.0
comment Created by Open3D
element vertex 1683
property float x
property float y
property float z
end_header
-0.022168 0.959414 -0.34628
-0.0260352 0.959609 -0.346388
-0.0298828 0.959727 -0.346475
-0.0337891 0.959785 -0.346541
-0.0376367 0.959785 -0.346585
-0.0414844 0.959687 -0.346608
-0.0453711 0.959512 -0.34661
-0.0491992 0.959277 -0.34659
-0.0530273 0.958926 -0.34655
-0.0569141 0.958555 -0.346487
-0.0607031 0.958086 -0.346403
-0.0645703 0.957539 -0.346299
-0.0683789 0.956934 -0.346172
-0.072207 0.95625 -0.346024
-0.0760156 0.955488 -0.345856
-0.0797852 0.954609 -0.345666
-0.0835742 0.95373 -0.345457
-0.0873828 0.952754 -0.345225
-0.0911328 0.951699 -0.344972
-0.0948828 0.950566 -0.3447
-0.0986523 0.949395 -0.344406
-0.102324 0.948086 -0.344092
-0.106035 0.946758 -0.343758
-0.109727 0.945352 -0.343403
-0.113398 0.943867 -0.343028
-0.117051 0.942305 -0.342633
-0.120742 0.940723 -0.342219
-0.124316 0.939004 -0.341785
-0.127949 0.937266 -0.341331
-0.131523 0.935469 -0.340857
-0.135059 0.933555 -0.340365
-0.138652 0.931602 -0.339853
-0.142129 0.92957 -0.339323
-0.145645 0.92752 -0.338775
-0.149121 0.925371 -0.338207
-0.152578 0.923145 -0.337622
-0.156035 0.920879 -0.337018
-0.159414 0.918555 -0.336398
-0.162793 0.916152 -0.335758
-0.166172 0.91373 -0.335102
-0.169473 0.911191 -0.334428
-0.172754 0.908613 -0.333739
-0.176074 0.905996 -0.333031
-0.179316 0.90334 -0.332308
-0.18252 0.900566 -0.331568
-0.185723 0.897773 -0.330813
-0.188906 0.894961 -0.330041
-0.192031 0.892051 -0.329255
-0.195156 0.889102 -0.328453
-0.198281 0.886289 -0.327707
-0.201348 0.883477 -0.326968
-0.204434 0.880625 -0.326213
-0.20752 0.877734 -0.325443
-0.210508 0.874766 -0.324657
-0.213477 0.871758 -0.323857
-0.216465 0.868711 -0.323042
-0.219375 0.865586 -0.322214
-0.222305 0.862441 -0.321369
-0.225137 0.859238 -0.320513
-0.227969 0.856016 -0.319642
-0.230742 0.852715 -0.318758
-0.233535 0.849375 -0.317861
-0.23625 0.845996 -0.316951
-0.238965 0.842598 -0.316028
-0.241641 0.839141 -0.315094
-0.244277 0.835664 -0.314147
-0.246934 0.832129 -0.313189
-0.249434 0.828535 -0.312219
-0.252012 0.824922 -0.311239
-0.254473 0.821289 -0.310247
-0.256953 0.817617 -0.309246
-0.259375 0.813887 -0.308234
-0.261758 0.810137 -0.307211
-0.26416 0.806367 -0.306179
-0.266504 0.802559 -0.305138
-0.26877 0.79873 -0.304088
-0.271035 0.794863 -0.303028
-0.273262 0.790996 -0.301961
-0.275449 0.787051 -0.300885
-0.277617 0.783105 -0.2998
-0.279746 0.77916 -0.298709
-0.281797 0.775137 -0.297609
-0.283887 0.771133 -0.296503
-0.285918 0.76709 -0.295389
-0.288555 0.764785 -0.29494
-0.291387 0.762949 -0.294687
-0.29416 0.761094 -0.294422
-0.296914 0.75916 -0.294145
-0.299668 0.757246 -0.293856
-0.302402 0.755254 -0.293556
-0.305137 0.753242 -0.293244
-0.307812 0.751172 -0.292922
-0.310469 0.749062 -0.292587
-0.313164 0.746953 -0.292241
-0.315723 0.744766 -0.291884
-0.31834 0.742539 -0.291515
-0.320879 0.740273 -0.291136
-0.323418 0.737988 -0.290746
-0.325957 0.735684 -0.290344
-0.328418 0.73332 -0.289933
-0.330859 0.730918 -0.28951
-0.33334 0.728516 -0.289077
-0.335762 0.726035 -0.288633
-0.338125 0.723555 -0.288179
-0.340469 0.721016 -0.287715
-0.342793 0.718457 -0.287242
-0.345078 0.71584 -0.286757
-0.347363 0.713223 -0.286263
-0.349629 0.710586 -0.285759
-0.351855 0.707891 -0.285246
-0.354043 0.705195 -0.284723
-0.356211 0.702441 -0.284191
-0.35832 0.699648 -0.283649
-0.360469 0.696875 -0.283099
-0.362559 0.694043 -0.282539
-0.36459 0.691191 -0.28197
-0.366582 0.688281 -0.281393
-0.368652 0.685391 -0.280807
-0.370566 0.682441 -0.280212
-0.3725 0.679473 -0.27961
-0.374434 0.676504 -0.278999
-0.376309 0.673516 -0.278379
-0.378145 0.670469 -0.277753
-0.37998 0.667422 -0.277117
-0.381777 0.664355 -0.276475
-0.383516 0.66123 -0.275825
-0.385273 0.658105 -0.275167
-0.386973 0.655 -0.274502
-0.388691 0.651836 -0.27383
-0.390293 0.648633 -0.273151
-0.391895 0.645449 -0.272466
-0.48041 0.784043 -0.331791
-0.484746 0.784023 -0.332617
-0.489082 0.784023 -0.333431
-0.493437 0.783906 -0.334235
-0.497754 0.783789 -0.335027
-0.502051 0.783594 -0.335808
-0.506387 0.78334 -0.336575
-0.510664 0.783066 -0.337332
-0.514941 0.782754 -0.338076
-0.519199 0.782363 -0.338809
-0.523418 0.781895 -0.339528
-0.527656 0.781426 -0.340234
-0.531914 0.780918 -0.340928
-0.536094 0.780312 -0.341608
0.528691 0.66957 -0.318555
0.525371 0.670957 -0.318206
0.52207 0.672324 -0.317843
0.51875 0.673594 -0.317468
0.515391 0.674863 -0.317081
0.512051 0.676074 -0.316681
0.508672 0.677246 -0.316269
0.433965 0.582637 -0.271285
0.428945 0.580703 -0.269579
0.423926 0.57877 -0.267888
0.418945 0.576855 -0.266212
0.414004 0.574922 -0.26455
0.409141 0.572988 -0.262903
0.404277 0.571074 -0.261271
0.399492 0.569141 -0.259654
0.394766 0.567227 -0.258051
0.390762 0.566328 -0.25692
0.388027 0.567168 -0.256604
0.385527 0.568477 -0.256481
0.383086 0.569707 -0.256357
0.380742 0.57125 -0.256337
0.378418 0.572715 -0.256326
0.376113 0.574219 -0.256315
0.37377 0.575703 -0.256304
0.371445 0.577168 -0.256291
0.369121 0.578613 -0.256277
0.366777 0.580059 -0.256263
0.364395 0.581504 -0.256248
0.362051 0.58291 -0.256231
0.359687 0.584336 -0.256214
0.357285 0.585742 -0.256196
0.354922 0.587109 -0.256177
0.35252 0.588496 -0.256157
0.350137 0.589844 -0.256137
0.347695 0.59123 -0.256115
0.345313 0.592559 -0.256093
0.34291 0.593887 -0.256069
0.340898 0.595898 -0.256347
0.339199 0.598496 -0.256877
0.33748 0.601094 -0.257399
0.335703 0.603633 -0.257915
0.333906 0.606191 -0.258424
0.332129 0.608711 -0.258926
0.330293 0.611211 -0.259421
0.328457 0.613691 -0.259909
0.326621 0.616133 -0.260389
0.324707 0.618574 -0.260862
0.322793 0.620977 -0.261328
0.32084 0.623359 -0.261786
0.318887 0.625684 -0.262236
0.316934 0.628027 -0.262679
0.314902 0.630332 -0.263113
0.312852 0.632637 -0.26354
0.31082 0.634902 -0.263959
0.30875 0.637129 -0.264369
0.30666 0.639336 -0.264771
0.304551 0.641504 -0.265166
0.302363 0.643691 -0.265551
0.300215 0.645801 -0.265928
0.298047 0.647891 -0.266297
0.29582 0.649961 -0.266657
0.293594 0.652012 -0.267008
0.291348 0.654004 -0.26735
0.289082 0.656016 -0.267684
0.286777 0.657949 -0.268008
0.284473 0.659863 -0.268324
0.282148 0.661777 -0.26863
0.279785 0.663633 -0.268927
0.277402 0.665449 -0.269216
0.27502 0.667266 -0.269494
0.272617 0.669043 -0.269763
0.270176 0.670801 -0.270023
0.267734 0.67248 -0.270274
0.265254 0.674141 -0.270515
0.262754 0.675781 -0.270746
0.260254 0.677383 -0.270967
0.257734 0.678945 -0.271179
0.255215 0.680488 -0.271381
0.252637 0.682012 -0.271573
0.250059 0.683457 -0.271756
0.247461 0.684883 -0.271928
0.244883 0.686289 -0.272091
0.242227 0.687676 -0.272243
0.23959 0.688965 -0.272386
0.236914 0.690313 -0.272519
0.234863 0.69334 -0.273345
0.232793 0.696367 -0.274171
0.230645 0.699395 -0.27499
0.228555 0.702363 -0.2758
0.226348 0.705312 -0.276603
0.22416 0.708262 -0.277396
0.221973 0.711172 -0.278181
0.219668 0.714043 -0.278958
0.217402 0.716875 -0.279726
0.215137 0.719668 -0.280484
0.212812 0.722461 -0.281233
0.210449 0.725234 -0.281972
0.208047 0.72793 -0.282702
0.205645 0.730605 -0.283422
0.203223 0.733281 -0.284132
0.200762 0.735898 -0.284831
0.198262 0.738496 -0.28552
0.195762 0.741016 -0.286198
0.193262 0.743535 -0.286866
0.190742 0.746211 -0.28759
0.188203 0.748809 -0.288303
0.185664 0.751367 -0.289005
0.183086 0.753906 -0.289697
0.18043 0.756406 -0.290378
0.177813 0.758887 -0.291047
0.175137 0.761328 -0.291705
0.17248 0.763711 -0.292353
0.169785 0.766035 -0.292988
0.167051 0.76834 -0.293611
0.164277 0.770625 -0.294223
0.161504 0.772871 -0.294823
0.15873 0.775059 -0.295409
0.155918 0.777187 -0.295984
0.153086 0.779277 -0.296546
0.150254 0.781309 -0.297095
0.147344 0.78332 -0.297631
0.144453 0.785312 -0.298154
0.141543 0.787227 -0.298663
0.138594 0.789082 -0.299159
0.135645 0.790918 -0.299641
0.132656 0.792676 -0.30011
0.129668 0.794414 -0.300565
0.12666 0.796094 -0.301005
0.123633 0.797734 -0.301431
0.120605 0.799297 -0.301843
0.117559 0.80082 -0.302241
0.114473 0.802305 -0.302624
0.111367 0.80375 -0.302992
0.108262 0.805117 -0.303346
0.105137 0.806465 -0.303684
0.102031 0.807734 -0.304007
0.0988477 0.808945 -0.304316
0.0957227 0.810137 -0.304608
0.0925391 0.81123 -0.304886
0.0893359 0.812324 -0.305148
0.0861719 0.81332 -0.305395
0.0829492 0.814434 -0.30569
0.0797656 0.815625 -0.306014
0.0765625 0.816758 -0.306323
0.0733594 0.817871 -0.306618
0.0701367 0.818906 -0.3069
0.0669141 0.819883 -0.307166
0.0636133 0.82082 -0.307419
0.0604102 0.821699 -0.307658
0.0571289 0.822539 -0.307881
0.0538477 0.82332 -0.308091
0.0506055 0.824062 -0.308285
0.0473047 0.824746 -0.308465
0.0440039 0.825352 -0.308631
0.0406836 0.825938 -0.308781
0.0374023 0.826445 -0.308917
0.0341211 0.826914 -0.309039
0.0307812 0.827344 -0.309144
0.0274805 0.827695 -0.309236
0.0241406 0.827988 -0.309312
0.0208008 0.828281 -0.309373
0.0174805 0.828457 -0.30942
0.0141602 0.828594 -0.309451
0.0108594 0.828691 -0.309467
0.0075 0.82873 -0.309469
0.00419922 0.828711 -0.309455
0.000839844 0.828652 -0.309426
-0.00251953 0.828672 -0.309443
-0.00580078 0.82873 -0.309464
-0.00916016 0.828711 -0.30947
-0.0125195 0.828691 -0.309461
-0.0158398 0.828555 -0.309437
-0.0191602 0.828359 -0.309398
-0.0224609 0.828144 -0.309344
-0.0258008 0.827852 -0.309276
-0.0291211 0.82752 -0.309192
-0.0324219 0.827148 -0.309094
-0.0357422 0.826699 -0.30898
-0.0390234 0.826172 -0.308851
-0.0423438 0.825644 -0.308708
-0.0456836 0.825059 -0.30855
-0.0489062 0.824375 -0.308377
-0.0521875 0.823691 -0.30819
-0.0554883 0.82293 -0.307988
-0.0587695 0.822129 -0.307772
-0.0620117 0.82127 -0.30754
-0.0652734 0.820371 -0.307294
-0.0684961 0.819375 -0.307035
-0.0717383 0.818398 -0.306761
-0.0749219 0.817305 -0.306472
-0.0781445 0.816191 -0.30617
-0.0813477 0.815019 -0.305854
-0.0845508 0.813828 -0.305523
-0.0877539 0.812813 -0.305273
-0.0909375 0.811777 -0.305018
-0.094082 0.810684 -0.304749
-0.0972656 0.809551 -0.304464
-0.10043 0.808359 -0.304163
-0.103555 0.807109 -0.303847
-0.106699 0.805801 -0.303516
-0.109805 0.804453 -0.303171
-0.112891 0.803047 -0.30281
-0.115996 0.801582 -0.302434
-0.119062 0.800078 -0.302044
-0.122109 0.798535 -0.301639
-0.125156 0.796914 -0.30122
-0.128145 0.795254 -0.300786
-0.131191 0.793535 -0.300339
-0.13416 0.791816 -0.299877
-0.137129 0.78998 -0.299402
-0.140059 0.788164 -0.298912
-0.142988 0.78625 -0.29841
-0.145898 0.784336 -0.297894
-0.14875 0.782324 -0.297364
-0.151641 0.780293 -0.296821
-0.154453 0.778223 -0.296266
-0.157285 0.776094 -0.295698
-0.160117 0.773965 -0.295117
-0.16291 0.771738 -0.294524
-0.165625 0.769473 -0.293919
-0.168379 0.767187 -0.293301
-0.171113 0.764902 -0.292672
-0.173789 0.7625 -0.29203
-0.176465 0.760117 -0.291378
-0.179121 0.757676 -0.290713
-0.181758 0.755176 -0.290038
-0.184355 0.752656 -0.289352
-0.186875 0.750078 -0.288655
-0.189434 0.7475 -0.287947
-0.191992 0.744863 -0.287229
-0.194492 0.742266 -0.286533
-0.197031 0.739766 -0.28586
-0.199512 0.737207 -0.285177
-0.201973 0.73459 -0.284483
-0.204414 0.731973 -0.283778
-0.206816 0.729297 -0.283063
-0.209238 0.726602 -0.282338
-0.211582 0.723848 -0.281604
-0.213926 0.721074 -0.280859
-0.21627 0.718301 -0.280106
-0.218516 0.715449 -0.279343
-0.220781 0.712578 -0.27857
-0.223047 0.709707 -0.27779
-0.225273 0.706797 -0.277
-0.227441 0.703828 -0.276202
-0.22959 0.700879 -0.275396
-0.231699 0.697871 -0.274581
-0.233867 0.694863 -0.273759
-0.235859 0.691777 -0.272929
-0.238242 0.689648 -0.272452
-0.240938 0.68834 -0.272314
-0.243535 0.686992 -0.272167
-0.246172 0.685605 -0.272009
-0.24877 0.684199 -0.271842
-0.251348 0.682734 -0.271664
-0.253926 0.68125 -0.271477
-0.256465 0.679727 -0.27128
-0.259004 0.678184 -0.271073
-0.261523 0.676582 -0.270856
-0.264004 0.674941 -0.27063
-0.266445 0.673301 -0.270394
-0.268945 0.671641 -0.270148
-0.271387 0.669902 -0.269893
-0.273809 0.668164 -0.269628
-0.276211 0.666387 -0.269354
-0.278574 0.664551 -0.269071
-0.280977 0.662715 -0.268779
-0.283281 0.66082 -0.268477
-0.285625 0.658926 -0.268166
-0.28791 0.656973 -0.267846
-0.290195 0.65502 -0.267517
-0.29248 0.652988 -0.267179
-0.294687 0.650977 -0.266832
-0.296895 0.648926 -0.266477
-0.299102 0.646836 -0.266112
-0.301309 0.644746 -0.265739
-0.303457 0.642598 -0.265358
-0.305566 0.64043 -0.264968
-0.307656 0.638223 -0.26457
-0.309746 0.636016 -0.264163
-0.311855 0.63377 -0.263749
-0.313848 0.631484 -0.263326
-0.315879 0.629199 -0.262895
-0.317891 0.626875 -0.262457
-0.319844 0.624551 -0.26201
-0.321797 0.622148 -0.261556
-0.32373 0.619746 -0.261094
-0.325645 0.617344 -0.260625
-0.3275 0.614902 -0.260148
-0.329375 0.612422 -0.259664
-0.331191 0.609961 -0.259173
-0.333008 0.607441 -0.258674
-0.334785 0.604922 -0.258169
-0.336523 0.602363 -0.257657
-0.338262 0.599805 -0.257137
-0.34 0.597227 -0.256611
-0.34168 0.594609 -0.256079
-0.344102 0.593223 -0.256081
-0.346504 0.591895 -0.256104
-0.348906 0.590547 -0.256126
-0.351289 0.58918 -0.256147
-0.353711 0.587832 -0.256167
-0.356074 0.586426 -0.256186
-0.358437 0.585039 -0.256205
-0.36084 0.583652 -0.256223
-0.363223 0.582227 -0.256239
-0.365547 0.580781 -0.256255
-0.367891 0.579355 -0.25627
-0.370273 0.57791 -0.256284
-0.372617 0.576426 -0.256297
-0.374941 0.574961 -0.256309
-0.377246 0.573477 -0.256321
-0.37957 0.571973 -0.256331
-0.381855 0.570449 -0.256341
-0.384277 0.569102 -0.256419
-0.386777 0.567832 -0.256542
-0.389238 0.566543 -0.256664
-0.392754 0.566777 -0.257481
-0.397109 0.568164 -0.258845
-0.401855 0.570098 -0.260455
-0.40668 0.572031 -0.262081
-0.411563 0.573945 -0.26372
-0.416465 0.575898 -0.265374
-0.421406 0.577832 -0.267042
-0.426387 0.579766 -0.268726
-0.431406 0.58168 -0.270425
-0.436504 0.583633 -0.272139
-0.510352 0.67666 -0.316472
-0.51373 0.675449 -0.316878
-0.517051 0.674219 -0.317272
-0.520371 0.672949 -0.317653
-0.523652 0.671602 -0.318022
-0.526973 0.670273 -0.318378
0.519922 0.573203 -0.298778
0.514453 0.571797 -0.296963
0.509043 0.570371 -0.295163
0.503672 0.568984 -0.293376
0.49834 0.567539 -0.291602
0.493066 0.566094 -0.289842
0.487832 0.564668 -0.288096
0.482617 0.563223 -0.286364
0.47748 0.561758 -0.284645
0.472383 0.560293 -0.282939
0.467285 0.558809 -0.281246
0.462246 0.557344 -0.279566
0.457285 0.555859 -0.2779
0.452363 0.554375 -0.276247
0.44748 0.552871 -0.274607
0.442578 0.551406 -0.272979
0.437754 0.549883 -0.271364
0.432969 0.548398 -0.269762
0.428262 0.546875 -0.268173
0.423496 0.545371 -0.266596
0.418867 0.543867 -0.265031
0.414219 0.542383 -0.263479
0.409648 0.54084 -0.261939
0.405078 0.539336 -0.260411
0.400547 0.537793 -0.258896
0.396719 0.537129 -0.257812
0.39293 0.536504 -0.256746
0.38916 0.535859 -0.255685
0.386465 0.536699 -0.255346
0.38416 0.538008 -0.255234
0.381816 0.539316 -0.255121
0.379473 0.540605 -0.255007
0.377129 0.541894 -0.254893
0.374766 0.543164 -0.254777
0.372422 0.544394 -0.254661
0.370098 0.545664 -0.254559
0.367891 0.547129 -0.254551
0.365684 0.548613 -0.254542
0.363457 0.550059 -0.254533
0.361211 0.551465 -0.254522
0.358965 0.55291 -0.254511
0.356738 0.554316 -0.254499
0.354473 0.555723 -0.254486
0.352227 0.557129 -0.254472
0.349961 0.558496 -0.254457
0.347715 0.559844 -0.254442
0.34543 0.561211 -0.254425
0.343145 0.562559 -0.254408
0.34084 0.563887 -0.25439
0.338574 0.565195 -0.254371
0.33625 0.566543 -0.254352
0.333965 0.567813 -0.254331
0.33166 0.569121 -0.25431
0.329297 0.57041 -0.254288
0.327012 0.571641 -0.254265
0.324668 0.57291 -0.254241
0.322324 0.57416 -0.254216
0.319961 0.575391 -0.25419
0.317637 0.576621 -0.254164
0.315293 0.577812 -0.254137
0.31293 0.579023 -0.254108
0.310527 0.580234 -0.25408
0.308184 0.581387 -0.25405
0.305801 0.582559 -0.254019
0.303418 0.58373 -0.253988
0.301055 0.584844 -0.253956
0.298652 0.585957 -0.253923
0.29623 0.58709 -0.253889
0.293848 0.588184 -0.253854
0.291426 0.589277 -0.253819
0.289043 0.590391 -0.253782
0.286621 0.591445 -0.253745
0.284219 0.59248 -0.253707
0.281738 0.593555 -0.253668
0.279297 0.59459 -0.253629
0.276895 0.595605 -0.253588
0.274473 0.596602 -0.253547
0.272012 0.597617 -0.253505
0.26957 0.598594 -0.253462
0.267129 0.59957 -0.253418
0.264668 0.600527 -0.253374
0.262187 0.601504 -0.253328
0.259707 0.602422 -0.253282
0.257207 0.603379 -0.253235
0.254766 0.604277 -0.253188
0.252266 0.605176 -0.253139
0.249805 0.606074 -0.25309
0.247285 0.606953 -0.25304
0.244863 0.607793 -0.252989
0.242324 0.608672 -0.252937
0.239844 0.609492 -0.252885
0.237324 0.610352 -0.252832
0.234805 0.611172 -0.252778
0.232285 0.611973 -0.252723
0.229805 0.612754 -0.252667
0.227266 0.613555 -0.252611
0.224824 0.614453 -0.252612
0.22248 0.615703 -0.252756
0.220098 0.616934 -0.252892
0.217773 0.618105 -0.253019
0.215371 0.619277 -0.253138
0.212949 0.62041 -0.253249
0.210527 0.621504 -0.253351
0.208105 0.622598 -0.253445
0.205703 0.623633 -0.25353
0.203223 0.624629 -0.253607
0.200781 0.625625 -0.253675
0.19834 0.626562 -0.253735
0.195859 0.627539 -0.253807
0.19377 0.629883 -0.254432
0.191699 0.632187 -0.255049
0.189668 0.634551 -0.255696
0.187617 0.636914 -0.256347
0.185488 0.639277 -0.256991
0.183398 0.641582 -0.257628
0.18123 0.643887 -0.258257
0.179102 0.646172 -0.258878
0.176895 0.648418 -0.259491
0.174707 0.650645 -0.260096
0.17248 0.652871 -0.26071
0.170234 0.655137 -0.261334
0.168008 0.657344 -0.261952
0.165762 0.659551 -0.262562
0.163496 0.661738 -0.263165
0.16123 0.663848 -0.263759
0.158887 0.665996 -0.264347
0.156543 0.668105 -0.264927
0.154199 0.670156 -0.265499
0.151816 0.672207 -0.266063
0.149395 0.674219 -0.266619
0.147012 0.676211 -0.267167
0.14459 0.678125 -0.267706
0.142129 0.680078 -0.268237
0.139687 0.681953 -0.268758
0.137168 0.683828 -0.269272
0.134707 0.685625 -0.269776
0.132207 0.687422 -0.270272
0.129668 0.689199 -0.270758
0.127109 0.690937 -0.271235
0.124551 0.692637 -0.271703
0.121953 0.694297 -0.272161
0.119355 0.695918 -0.27261
0.116738 0.69752 -0.273049
0.114121 0.699102 -0.273479
0.111465 0.700605 -0.273898
0.108848 0.70209 -0.274308
0.106133 0.703535 -0.274707
0.103477 0.704961 -0.275096
0.100762 0.706367 -0.275475
0.0980859 0.707695 -0.275844
0.0953711 0.708984 -0.276202
0.0926367 0.710254 -0.276549
0.0898633 0.711504 -0.276886
0.0871094 0.712695 -0.277212
0.0843555 0.713848 -0.277527
0.0815625 0.715 -0.277831
0.0787695 0.716035 -0.278125
0.0759375 0.717109 -0.278407
0.0731445 0.718105 -0.278678
0.0703516 0.719023 -0.278938
0.0675195 0.719961 -0.279186
0.0646484 0.72084 -0.279424
0.0617773 0.72168 -0.279649
0.0589453 0.72248 -0.279864
0.0560937 0.723223 -0.280067
0.0532227 0.723945 -0.280258
0.050332 0.724609 -0.280437
0.0474805 0.725254 -0.280605
0.0445508 0.72584 -0.280762
0.0416602 0.726387 -0.280906
0.0387695 0.726875 -0.281039
0.0358398 0.727363 -0.28116
0.0329297 0.727773 -0.281269
0.0300586 0.728145 -0.281366
0.0271289 0.728496 -0.281451
0.0241992 0.72877 -0.281524
0.02125 0.729023 -0.281585
0.0183203 0.729219 -0.281634
0.0154102 0.729394 -0.281671
0.0124805 0.729512 -0.281696
0.00955078 0.72959 -0.281709
0.00662109 0.729629 -0.281711
0.00367187 0.729629 -0.2817
0.000722656 0.72957 -0.281677
-0.00216797 0.72959 -0.28169
-0.00509766 0.729609 -0.281706
-0.00808594 0.729629 -0.281712
-0.0109961 0.729551 -0.281704
-0.0139258 0.729473 -0.281685
-0.0168359 0.729316 -0.281654
-0.0197656 0.729121 -0.281611
-0.0227148 0.728887 -0.281556
-0.0256445 0.728633 -0.281489
-0.0285742 0.72834 -0.281409
-0.0314844 0.727969 -0.281319
-0.0343945 0.727559 -0.281215
-0.0372852 0.727109 -0.281101
-0.0401953 0.726641 -0.280974
-0.0430664 0.726094 -0.280835
-0.0459766 0.725547 -0.280685
-0.0488867 0.724941 -0.280523
-0.0517383 0.724277 -0.280349
-0.0546094 0.723574 -0.280164
-0.0575 0.722852 -0.279966
-0.0603516 0.72209 -0.279758
-0.0632031 0.72125 -0.279538
-0.0660742 0.72043 -0.279306
-0.0689062 0.719531 -0.279063
-0.0717187 0.718594 -0.278809
-0.0745312 0.717598 -0.278544
-0.0773242 0.716563 -0.278267
-0.0801758 0.715527 -0.277979
-0.0829492 0.714434 -0.27768
-0.0857227 0.713281 -0.277371
-0.0884961 0.712129 -0.27705
-0.0912305 0.710918 -0.276719
-0.0939648 0.709648 -0.276376
-0.0967188 0.708379 -0.276024
-0.0993945 0.707031 -0.27566
-0.10209 0.705664 -0.275287
-0.104785 0.704258 -0.274903
-0.10748 0.702832 -0.274509
-0.110137 0.701367 -0.274104
-0.112773 0.699844 -0.27369
-0.11541 0.69832 -0.273265
-0.118047 0.696738 -0.272831
-0.120645 0.695117 -0.272387
-0.123223 0.693477 -0.271933
-0.125762 0.691758 -0.27147
-0.12834 0.690078 -0.270998
-0.130879 0.68832 -0.270516
-0.133398 0.686543 -0.270025
-0.135957 0.684746 -0.269525
-0.138398 0.682871 -0.269016
-0.14084 0.681016 -0.268498
-0.14334 0.679121 -0.267972
-0.145801 0.677168 -0.267437
-0.148203 0.675215 -0.266893
-0.150625 0.673223 -0.266342
-0.152949 0.671172 -0.265782
-0.155332 0.669141 -0.265214
-0.157695 0.667031 -0.264638
-0.16002 0.664941 -0.264054
-0.162324 0.662812 -0.263463
-0.164609 0.660645 -0.262864
-0.166875 0.658457 -0.262258
-0.169141 0.65623 -0.261644
-0.171348 0.653984 -0.261023
-0.173574 0.651758 -0.260395
-0.175781 0.649531 -0.259794
-0.177988 0.647305 -0.259185
-0.180117 0.64502 -0.258568
-0.182285 0.642734 -0.257943
-0.184414 0.64043 -0.25731
-0.186504 0.638105 -0.25667
-0.188613 0.635723 -0.256022
-0.190684 0.63334 -0.255368
-0.192754 0.630996 -0.254741
-0.194824 0.628711 -0.25412
-0.197051 0.627031 -0.253761
-0.199551 0.626094 -0.253705
-0.202012 0.625137 -0.253641
-0.204434 0.624141 -0.253568
-0.206875 0.623125 -0.253487
-0.209336 0.622051 -0.253398
-0.211719 0.620957 -0.2533
-0.214121 0.619844 -0.253193
-0.216523 0.618691 -0.253078
-0.218926 0.617519 -0.252955
-0.221289 0.616328 -0.252823
-0.223633 0.615098 -0.252683
-0.226035 0.613926 -0.252582
-0.228516 0.613145 -0.252639
-0.231035 0.612383 -0.252695
-0.233555 0.611582 -0.25275
-0.236035 0.610762 -0.252805
-0.238555 0.609941 -0.252858
-0.241074 0.609082 -0.252911
-0.243574 0.608242 -0.252963
-0.246055 0.607383 -0.253014
-0.248535 0.606523 -0.253065
-0.251035 0.605625 -0.253114
-0.253535 0.604707 -0.253163
-0.255957 0.603809 -0.253211
-0.258457 0.60291 -0.253259
-0.260918 0.601973 -0.253305
-0.263379 0.601016 -0.253351
-0.265859 0.600059 -0.253396
-0.268281 0.599082 -0.25344
-0.270781 0.598125 -0.253483
-0.273223 0.597109 -0.253526
-0.275645 0.596113 -0.253567
-0.278105 0.595098 -0.253608
-0.280547 0.594063 -0.253648
-0.282949 0.593027 -0.253687
-0.285371 0.591992 -0.253726
-0.287754 0.590898 -0.253763
-0.290215 0.589824 -0.2538
-0.292637 0.58873 -0.253836
-0.29502 0.587656 -0.253871
-0.297422 0.586543 -0.253905
-0.299844 0.58541 -0.253939
-0.302227 0.584258 -0.253972
-0.304629 0.583125 -0.254003
-0.306992 0.581973 -0.254034
-0.309375 0.58082 -0.254064
-0.311699 0.579609 -0.254094
-0.314063 0.578438 -0.254122
-0.316445 0.577207 -0.25415
-0.318789 0.575996 -0.254177
-0.321113 0.574766 -0.254203
-0.323496 0.573535 -0.254228
-0.32584 0.572285 -0.254252
-0.328145 0.571035 -0.254276
-0.330488 0.569746 -0.254299
-0.332773 0.568477 -0.25432
-0.335098 0.567187 -0.254341
-0.337383 0.565859 -0.254361
-0.339668 0.564551 -0.254381
-0.341973 0.563223 -0.254399
-0.344238 0.561855 -0.254417
-0.346563 0.560527 -0.254434
-0.348809 0.55916 -0.254449
-0.351094 0.557773 -0.254464
-0.35334 0.556406 -0.254479
-0.355605 0.555019 -0.254492
-0.357832 0.553594 -0.254505
-0.360059 0.552168 -0.254516
-0.362324 0.550762 -0.254527
-0.36459 0.549336 -0.254537
-0.366777 0.547871 -0.254546
-0.368984 0.546387 -0.254555
-0.37127 0.54502 -0.254602
-0.373613 0.54377 -0.254719
-0.375957 0.54252 -0.254835
-0.37834 0.54127 -0.254949
-0.380625 0.539941 -0.255063
-0.382988 0.538672 -0.255177
-0.385273 0.537324 -0.255289
-0.387637 0.536055 -0.255401
-0.391035 0.536172 -0.256211
-0.394805 0.536797 -0.257275
-0.398633 0.537422 -0.258343
-0.402793 0.538555 -0.259647
-0.407324 0.540078 -0.261169
-0.411895 0.541582 -0.262702
-0.416484 0.543105 -0.264249
-0.421113 0.544609 -0.265807
-0.425801 0.546113 -0.267377
-0.430566 0.547637 -0.268961
-0.435371 0.54916 -0.270556
-0.440176 0.550645 -0.272165
-0.44498 0.552129 -0.273786
-0.449883 0.553613 -0.275419
-0.454805 0.555098 -0.277067
-0.459727 0.556602 -0.278726
-0.464746 0.558047 -0.280399
-0.469805 0.559551 -0.282085
-0.474941 0.561016 -0.283784
-0.480039 0.562461 -0.285497
-0.485195 0.563906 -0.287222
-0.49043 0.565371 -0.288962
-0.495703 0.566797 -0.290715
-0.500996 0.568262 -0.292481
-0.506367 0.569687 -0.294261
-0.511699 0.571094 -0.296055
-0.517129 0.57248 -0.297863
0.516504 0.533906 -0.296304
0.511445 0.532988 -0.294638
0.506426 0.532031 -0.292984
0.501484 0.531035 -0.29134
0.496562 0.530059 -0.289707
0.491621 0.529082 -0.288085
0.486758 0.528105 -0.286473
0.481953 0.52707 -0.284872
0.477129 0.526055 -0.283282
0.472363 0.525039 -0.281702
0.467637 0.524004 -0.280132
0.46291 0.52293 -0.278573
0.458262 0.521875 -0.277025
0.453633 0.520801 -0.275487
0.449043 0.519727 -0.273959
0.444453 0.518652 -0.272442
0.439922 0.517559 -0.270935
0.43541 0.516426 -0.269439
0.430977 0.515312 -0.267952
0.426504 0.514219 -0.266476
0.42209 0.513086 -0.26501
0.417715 0.511953 -0.263554
0.413398 0.510801 -0.262108
0.409043 0.509668 -0.260672
0.40498 0.508711 -0.259358
0.401367 0.508359 -0.258348
0.397754 0.507969 -0.257342
0.39416 0.507578 -0.25634
0.390586 0.507187 -0.255342
0.387051 0.506758 -0.254348
0.384687 0.507891 -0.254131
0.38248 0.509238 -0.254029
0.380273 0.510547 -0.253927
0.378027 0.511855 -0.253823
0.375879 0.513184 -0.253718
0.373652 0.514453 -0.253613
0.371406 0.515742 -0.253507
0.36916 0.517031 -0.2534
0.366914 0.518281 -0.253293
0.364688 0.519531 -0.253184
0.362402 0.520781 -0.253075
0.360195 0.521992 -0.252965
0.357969 0.523301 -0.252894
0.355879 0.524707 -0.252887
0.35377 0.526094 -0.252879
0.35166 0.5275 -0.252871
0.349492 0.528926 -0.252862
0.347344 0.530273 -0.252852
0.345215 0.53166 -0.252841
0.343047 0.533027 -0.25283
0.340879 0.534355 -0.252817
0.338711 0.535703 -0.252804
0.336504 0.537031 -0.25279
0.334355 0.53834 -0.252775
0.332129 0.539668 -0.25276
0.329961 0.540957 -0.252743
0.327773 0.542246 -0.252726
0.325566 0.543516 -0.252708
0.32332 0.544785 -0.252689
0.321133 0.546035 -0.252669
0.318926 0.547266 -0.252649
0.316699 0.548516 -0.252628
0.314434 0.549727 -0.252606
0.312168 0.550957 -0.252583
0.309961 0.552129 -0.252559
0.307715 0.55332 -0.252535
0.305449 0.554492 -0.252509
0.303184 0.555684 -0.252484
0.300898 0.556816 -0.252457
0.298691 0.557949 -0.252429
0.296367 0.559082 -0.252401
0.294062 0.560234 -0.252372
0.291777 0.561328 -0.252341
0.289512 0.562422 -0.252311
0.287207 0.563516 -0.252279
0.284922 0.56457 -0.252247
0.282578 0.565664 -0.252214
0.280293 0.566719 -0.25218
0.27793 0.567754 -0.252145
0.275645 0.568789 -0.252109
0.27334 0.569785 -0.252073
0.270957 0.57084 -0.252036
0.268672 0.571797 -0.251998
0.266289 0.572812 -0.251959
0.263945 0.573789 -0.25192
0.261602 0.574746 -0.25188
0.259238 0.575723 -0.251839
0.256895 0.576641 -0.251797
0.254531 0.577578 -0.251755
0.252168 0.578477 -0.251711
0.249746 0.579395 -0.251667
0.247402 0.580293 -0.251622
0.24502 0.581191 -0.251577
0.242637 0.58207 -0.251531
0.240254 0.58293 -0.251484
0.237871 0.58377 -0.251436
0.235508 0.58459 -0.251387
0.233086 0.58541 -0.251338
0.230703 0.58625 -0.251288
0.228301 0.587051 -0.251237
0.22584 0.587832 -0.251185
0.223457 0.588613 -0.251132
0.221035 0.589395 -0.251079
0.218574 0.590156 -0.251026
0.216191 0.590898 -0.250971
0.21377 0.591641 -0.250916
0.211328 0.592344 -0.250859
0.208945 0.593047 -0.250803
0.206484 0.593769 -0.250745
0.204043 0.594453 -0.250687
0.201582 0.595137 -0.250628
0.19916 0.595781 -0.250568
0.196738 0.596406 -0.250507
0.194297 0.59707 -0.250446
0.191816 0.597695 -0.250384
0.189395 0.59834 -0.250334
0.187012 0.59918 -0.250369
0.184609 0.60002 -0.250403
0.182227 0.60084 -0.250437
0.179824 0.601641 -0.25047
0.177422 0.602441 -0.250502
0.175 0.603242 -0.250534
0.172598 0.604004 -0.250565
0.170215 0.604766 -0.250595
0.167832 0.605508 -0.250625
0.16541 0.60625 -0.250654
0.162969 0.607012 -0.250683
0.160566 0.607695 -0.25071
0.158145 0.608398 -0.250738
0.155703 0.609082 -0.250764
0.153262 0.609785 -0.25079
0.15082 0.610469 -0.250815
0.148379 0.611113 -0.25084
0.145957 0.611758 -0.250864
0.143457 0.612402 -0.250888
0.141035 0.613047 -0.25091
0.138574 0.613652 -0.250932
0.136172 0.614238 -0.250954
0.133633 0.614844 -0.250975
0.131211 0.61543 -0.250995
0.12873 0.616016 -0.251014
0.12627 0.616582 -0.251033
0.12377 0.617109 -0.251051
0.121309 0.617656 -0.251069
0.118867 0.618164 -0.251086
0.116367 0.618672 -0.251102
0.113887 0.61918 -0.251118
0.111543 0.620469 -0.25145
0.109199 0.621816 -0.25183
0.106895 0.623203 -0.252202
0.104512 0.624512 -0.252565
0.102168 0.625801 -0.252921
0.0997852 0.627051 -0.253269
0.0974023 0.62832 -0.253607
0.095 0.629492 -0.253938
0.0925977 0.630664 -0.254259
0.0901367 0.631836 -0.254572
0.0876953 0.632969 -0.254877
0.0852539 0.634023 -0.255173
0.082793 0.635078 -0.25546
0.080332 0.636094 -0.255738
0.0778906 0.63707 -0.256008
0.0753711 0.638047 -0.256267
0.0728906 0.638965 -0.256519
0.0703906 0.639863 -0.256761
0.0678711 0.640703 -0.256994
0.0653906 0.641523 -0.257217
0.0628125 0.642344 -0.257431
0.060293 0.643105 -0.257636
0.0577344 0.643828 -0.257832
0.0551953 0.644512 -0.258018
0.0526367 0.645156 -0.258194
0.0500586 0.645801 -0.258362
0.0475195 0.646387 -0.258519
0.0449219 0.646953 -0.258667
0.0423828 0.647441 -0.258805
0.0397852 0.64793 -0.258934
0.0372266 0.648379 -0.259053
0.0345898 0.648809 -0.259162
0.0319727 0.649199 -0.259262
0.0293945 0.649551 -0.259351
0.0268164 0.649863 -0.259431
0.0241992 0.650117 -0.259501
0.0216211 0.650371 -0.259561
0.0189844 0.650586 -0.259612
0.0163477 0.650762 -0.259652
0.0137305 0.650879 -0.259682
0.0111328 0.650996 -0.259703
0.00851563 0.651074 -0.259714
0.0059375 0.651094 -0.259715
0.00326172 0.651074 -0.259706
0.000683594 0.651055 -0.259687
-0.00195312 0.651094 -0.259698
-0.00458984 0.651094 -0.259712
-0.00716797 0.651074 -0.259715
-0.00980469 0.651035 -0.25971
-0.0124414 0.650957 -0.259694
-0.0150586 0.65084 -0.259668
-0.0176367 0.650645 -0.259633
-0.020293 0.650488 -0.259587
-0.0228516 0.650254 -0.259532
-0.0254883 0.65 -0.259467
-0.0281055 0.649707 -0.259392
-0.0306836 0.649375 -0.259308
-0.0332812 0.649004 -0.259213
-0.0358398 0.648594 -0.259108
-0.038457 0.648164 -0.258994
-0.0410352 0.647715 -0.258871
-0.0436133 0.647207 -0.258737
-0.0462305 0.64666 -0.258594
-0.0488086 0.646094 -0.258441
-0.0513477 0.645508 -0.258279
-0.0539258 0.644844 -0.258107
-0.0564648 0.64416 -0.257926
-0.0590039 0.643457 -0.257735
-0.061543 0.642734 -0.257535
-0.064082 0.641953 -0.257325
-0.0666211 0.641133 -0.257106
-0.0690625 0.640293 -0.256878
-0.0716211 0.639434 -0.256641
-0.0741211 0.638496 -0.256394
-0.076582 0.637578 -0.256138
-0.079082 0.636602 -0.255874
-0.081582 0.635605 -0.2556
-0.0840234 0.63457 -0.255318
-0.0864648 0.633496 -0.255026
-0.0889258 0.632383 -0.254726
-0.0913086 0.63125 -0.254417
-0.0937695 0.630098 -0.2541
-0.0961523 0.628906 -0.253773
-0.0985547 0.627695 -0.253439
-0.100938 0.626445 -0.253096
-0.10332 0.625176 -0.252745
-0.105684 0.623848 -0.252384
-0.108027 0.6225 -0.252017
-0.110391 0.621152 -0.251641
-0.112715 0.619727 -0.251257
-0.115137 0.618926 -0.25111
-0.117598 0.618437 -0.251094
-0.120078 0.61791 -0.251077
-0.122559 0.617383 -0.25106
-0.12502 0.616816 -0.251042
-0.1275 0.616309 -0.251024
-0.129961 0.615742 -0.251004
-0.132441 0.615137 -0.250985
-0.134883 0.614551 -0.250964
-0.137324 0.613945 -0.250943
-0.139805 0.61334 -0.250921
-0.142266 0.612734 -0.250899
-0.144707 0.612109 -0.250876
-0.147148 0.611426 -0.250852
-0.14959 0.610801 -0.250828
-0.152031 0.610137 -0.250803
-0.154473 0.609453 -0.250777
-0.156914 0.60875 -0.250751
-0.159336 0.608047 -0.250724
-0.161719 0.607324 -0.250697
-0.16418 0.606602 -0.250668
-0.166582 0.605879 -0.25064
-0.169004 0.605156 -0.25061
-0.171426 0.604394 -0.25058
-0.173828 0.603633 -0.250549
-0.17625 0.602852 -0.250518
-0.178633 0.602051 -0.250486
-0.181035 0.60125 -0.250453
-0.183379 0.60043 -0.25042
-0.185762 0.59959 -0.250386
-0.188164 0.59875 -0.250352
-0.190566 0.598008 -0.250352
-0.193066 0.597402 -0.250415
-0.195449 0.596758 -0.250476
-0.197949 0.596113 -0.250537
-0.20041 0.595469 -0.250598
-0.202793 0.594785 -0.250657
-0.205273 0.594121 -0.250715
-0.207676 0.593398 -0.250774
-0.210098 0.592715 -0.250831
-0.212539 0.591992 -0.250887
-0.214961 0.591269 -0.250943
-0.217402 0.590527 -0.250998
-0.219805 0.589766 -0.251052
-0.222207 0.589004 -0.251106
-0.224629 0.588242 -0.251159
-0.227012 0.587441 -0.25121
-0.229453 0.58666 -0.251262
-0.231875 0.58584 -0.251312
-0.234258 0.58502 -0.251362
-0.23666 0.584199 -0.251411
-0.239062 0.58334 -0.25146
-0.241445 0.58248 -0.251507
-0.243848 0.581621 -0.251554
-0.246191 0.580762 -0.251599
-0.248535 0.579844 -0.251645
-0.250957 0.578965 -0.251689
-0.25332 0.578027 -0.251733
-0.255664 0.577109 -0.251776
-0.258008 0.576152 -0.251818
-0.260391 0.575234 -0.251859
-0.262754 0.574277 -0.2519
-0.265098 0.573301 -0.25194
-0.267441 0.572324 -0.251979
-0.269824 0.571348 -0.252017
-0.272109 0.570293 -0.252054
-0.274453 0.569316 -0.252091
-0.276777 0.568301 -0.252127
-0.279102 0.567246 -0.252162
-0.281406 0.566191 -0.252196
-0.28377 0.565137 -0.25223
-0.286035 0.564043 -0.252263
-0.28834 0.562969 -0.252295
-0.290645 0.561855 -0.252326
-0.29291 0.560781 -0.252356
-0.295215 0.559668 -0.252386
-0.29748 0.558516 -0.252415
-0.299785 0.557383 -0.252443
-0.302031 0.55623 -0.25247
-0.304297 0.555059 -0.252496
-0.306543 0.553887 -0.252522
-0.308828 0.552715 -0.252547
-0.311035 0.551523 -0.252571
-0.313301 0.550332 -0.252594
-0.315566 0.549121 -0.252617
-0.317754 0.547891 -0.252638
-0.32 0.546641 -0.252659
-0.322227 0.54541 -0.252679
-0.324453 0.54416 -0.252698
-0.326621 0.542871 -0.252717
-0.328848 0.541602 -0.252734
-0.331074 0.540312 -0.252751
-0.333242 0.539023 -0.252767
-0.33541 0.537695 -0.252782
-0.337637 0.536387 -0.252797
-0.339746 0.535039 -0.25281
-0.341973 0.533711 -0.252823
-0.344082 0.532344 -0.252835
-0.34623 0.530977 -0.252846
-0.348398 0.529629 -0.252857
-0.350527 0.528203 -0.252866
-0.352676 0.526816 -0.252875
-0.354785 0.52541 -0.252883
-0.356895 0.523984 -0.25289
-0.359043 0.522598 -0.252909
-0.361289 0.521367 -0.253019
-0.363535 0.520156 -0.253129
-0.365781 0.518906 -0.253238
-0.368066 0.517656 -0.253346
-0.370254 0.516387 -0.253453
-0.37248 0.515117 -0.25356
-0.374707 0.513809 -0.253665
-0.376934 0.512539 -0.25377
-0.37916 0.511211 -0.253874
-0.381348 0.509883 -0.253978
-0.383574 0.508555 -0.25408
-0.385742 0.507207 -0.254182
-0.388789 0.506973 -0.254841
-0.392363 0.507363 -0.255837
-0.395957 0.507793 -0.256837
-0.399512 0.508184 -0.257841
-0.403145 0.508535 -0.258849
-0.406895 0.509082 -0.259953
-0.41123 0.510215 -0.261384
-0.415547 0.511367 -0.262824
-0.419883 0.5125 -0.264276
-0.424297 0.513652 -0.265736
-0.428691 0.514746 -0.267207
-0.433184 0.515898 -0.268689
-0.437637 0.516973 -0.27018
-0.442168 0.518086 -0.271682
-0.446738 0.51918 -0.273194
-0.451309 0.520254 -0.274716
-0.455937 0.521367 -0.276249
-0.460586 0.522422 -0.277793
-0.465234 0.523477 -0.279346
-0.46998 0.524512 -0.28091
-0.474707 0.525547 -0.282485
-0.479473 0.526563 -0.28407
-0.484316 0.527578 -0.285666
-0.48918 0.528574 -0.287272
-0.494043 0.52959 -0.288889
-0.499004 0.530547 -0.290517
-0.503945 0.531543 -0.292155
-0.508926 0.5325 -0.293804
-0.513945 0.533437 -0.295464
-0.41332 -0.753848 -0.354015
-0.402207 -0.740625 -0.347049
-0.382793 -0.711758 -0.332794
-0.380098 -0.713574 -0.33294
-0.377402 -0.715449 -0.333081
-0.374668 -0.717227 -0.333219
-0.371934 -0.719023 -0.333354
-0.36918 -0.72082 -0.333484
-0.366426 -0.722539 -0.333611
-0.363633 -0.724297 -0.333735
-0.360859 -0.725996 -0.333854
-0.358066 -0.727715 -0.33397
0.35668 -0.728535 -0.334027
0.359492 -0.726875 -0.333913
0.362266 -0.725176 -0.333796
0.365039 -0.723418 -0.333674
0.367832 -0.721699 -0.333549
0.370586 -0.719902 -0.33342
0.373301 -0.718125 -0.333288
0.376055 -0.716328 -0.333151
0.37877 -0.714531 -0.333011
0.381465 -0.712676 -0.332868
0.396777 -0.734238 -0.343675
0.407715 -0.747207 -0.350513
0.511602 0.495918 -0.293395
0.506973 0.495391 -0.291874
0.502363 0.494844 -0.290362
0.497773 0.494297 -0.288857
0.493223 0.493711 -0.28736
0.488672 0.493145 -0.285872
0.48416 0.4925 -0.284391
0.479668 0.491895 -0.282919
0.475254 0.49125 -0.281455
0.470801 0.490605 -0.279999
0.466406 0.48998 -0.278551
0.462051 0.489297 -0.277111
0.457695 0.488594 -0.275679
0.453359 0.48791 -0.274255
0.449102 0.487207 -0.27284
0.444824 0.486465 -0.271432
0.440566 0.485762 -0.270033
0.436309 0.48502 -0.268642
0.432148 0.484258 -0.267258
0.427988 0.483477 -0.265883
0.423887 0.482676 -0.264516
0.419727 0.481914 -0.263158
0.415645 0.481133 -0.261807
0.411602 0.480332 -0.260464
0.408125 0.480176 -0.259496
0.404687 0.480059 -0.258547
0.401348 0.479902 -0.257601
0.39791 0.479746 -0.256658
0.394531 0.47959 -0.255718
0.391191 0.479414 -0.254782
0.387832 0.479199 -0.253848
0.384668 0.479258 -0.253049
0.382598 0.480625 -0.252957
0.380508 0.481973 -0.252864
0.378457 0.48332 -0.252771
0.376348 0.484668 -0.252676
0.374277 0.485977 -0.252581
0.372168 0.487324 -0.252485
0.370098 0.488594 -0.252389
0.367969 0.489922 -0.252291
0.365859 0.491191 -0.252193
0.36373 0.492441 -0.252094
0.361582 0.493691 -0.251994
0.359473 0.494961 -0.251893
0.357324 0.496211 -0.251792
0.355195 0.497422 -0.25169
0.353047 0.498672 -0.251587
0.350898 0.499863 -0.251483
0.34875 0.501055 -0.251379
0.346699 0.502363 -0.251338
0.344648 0.50377 -0.251332
0.342578 0.505137 -0.251326
0.340566 0.506484 -0.251318
0.338516 0.507832 -0.25131
0.336465 0.50918 -0.251302
0.334395 0.510508 -0.251292
0.332305 0.511816 -0.251282
0.330254 0.513125 -0.251271
0.328164 0.514453 -0.251259
0.326035 0.515723 -0.251246
0.323965 0.516992 -0.251233
0.321875 0.518281 -0.251219
0.319805 0.519512 -0.251204
0.317656 0.520781 -0.251188
0.315547 0.522012 -0.251171
0.313418 0.523242 -0.251154
0.31127 0.524453 -0.251136
0.30916 0.525664 -0.251117
0.307031 0.526875 -0.251098
0.304902 0.528047 -0.251077
0.302754 0.529219 -0.251057
0.300566 0.530391 -0.251035
0.298438 0.531543 -0.251012
0.29627 0.532715 -0.250989
0.294082 0.533848 -0.250964
0.291914 0.534941 -0.250939
0.289668 0.536074 -0.250914
0.28752 0.537188 -0.250888
0.285332 0.538281 -0.25086
0.283145 0.539355 -0.250832
0.280937 0.54043 -0.250804
0.278711 0.541484 -0.250774
0.276523 0.542539 -0.250744
0.274316 0.543555 -0.250713
0.27207 0.544609 -0.250681
0.269844 0.545625 -0.250649
0.267598 0.546621 -0.250615
0.265371 0.547617 -0.250582
0.263145 0.548613 -0.250547
0.260879 0.549609 -0.250511
0.258633 0.550566 -0.250475
0.256387 0.551504 -0.250438
0.254121 0.552441 -0.2504
0.251855 0.553379 -0.250362
0.249609 0.554297 -0.250323
0.247363 0.555195 -0.250283
0.245098 0.556094 -0.250242
0.242773 0.556992 -0.250201
0.240488 0.557891 -0.250159
0.238223 0.55875 -0.250116
0.235918 0.559629 -0.250072
0.233633 0.560449 -0.250028
0.231348 0.561289 -0.249982
0.229043 0.562109 -0.249937
0.226738 0.56293 -0.24989
0.224434 0.563711 -0.249843
0.22209 0.564512 -0.249795
0.219785 0.565293 -0.249746
0.21748 0.566055 -0.249697
0.215195 0.566797 -0.249647
0.212832 0.567559 -0.249596
0.210527 0.568262 -0.249544
0.208164 0.569004 -0.249492
0.205859 0.569727 -0.249439
0.203516 0.570449 -0.249385
0.201191 0.571074 -0.249331
0.198867 0.571777 -0.249276
0.196484 0.572461 -0.24922
0.194141 0.573105 -0.249163
0.191797 0.57375 -0.249106
0.189434 0.574395 -0.249048
0.187109 0.575098 -0.249037
0.184863 0.575957 -0.249071
0.182539 0.576758 -0.249105
0.180254 0.577578 -0.249139
0.177969 0.57834 -0.249171
0.175645 0.57916 -0.249204
0.173359 0.579902 -0.249235
0.170996 0.580684 -0.249266
0.168691 0.581445 -0.249297
0.166406 0.582187 -0.249326
0.164082 0.58291 -0.249356
0.161719 0.583652 -0.249384
0.159434 0.584375 -0.249412
0.15707 0.585059 -0.249439
0.154746 0.585762 -0.249466
0.152383 0.586426 -0.249492
0.150078 0.58707 -0.249518
0.147734 0.587734 -0.249543
0.145371 0.588398 -0.249567
0.143027 0.589023 -0.24959
0.140684 0.589629 -0.249613
0.138301 0.590273 -0.249636
0.135879 0.590879 -0.249658
0.133555 0.591465 -0.249679
0.131191 0.592031 -0.2497
0.128848 0.592617 -0.24972
0.126426 0.593184 -0.249739
0.124082 0.593711 -0.249758
0.121738 0.594238 -0.249776
0.119316 0.594785 -0.249793
0.116934 0.595273 -0.24981
0.114551 0.595781 -0.249826
0.112168 0.596289 -0.249842
0.109746 0.596777 -0.249857
0.107383 0.597246 -0.249871
0.10498 0.597695 -0.249885
0.102617 0.598145 -0.249898
0.100195 0.598594 -0.24991
0.0977734 0.599004 -0.249922
0.0953711 0.599434 -0.249933
0.0929687 0.599863 -0.249944
0.0905469 0.600234 -0.249954
0.0881445 0.600625 -0.249963
0.0857422 0.600977 -0.249972
0.0833203 0.601328 -0.24998
0.0808984 0.60166 -0.249987
0.0784961 0.602031 -0.249994
0.0760937 0.602344 -0.25
0.0736328 0.602656 -0.250006
0.0712305 0.602969 -0.250011
0.0687891 0.603262 -0.250015
0.0663867 0.603516 -0.250018
0.0639648 0.603809 -0.250022
0.0615625 0.604062 -0.250024
0.0591211 0.604316 -0.250026
0.0566797 0.604551 -0.250027
0.0542383 0.604766 -0.250027
0.0517969 0.60498 -0.250027
0.0493945 0.605176 -0.250026
0.0469531 0.605371 -0.250025
0.0445117 0.605547 -0.250023
0.0420703 0.605742 -0.25002
0.0396094 0.605898 -0.250017
0.037207 0.606035 -0.250013
0.0348047 0.606152 -0.250009
0.0323047 0.60627 -0.250004
0.0298828 0.606367 -0.249998
0.0274805 0.606484 -0.249991
0.0250195 0.606562 -0.249984
0.0225586 0.606641 -0.249977
0.0201367 0.606719 -0.249968
0.0176758 0.606777 -0.249959
0.0152539 0.606816 -0.24995
0.012832 0.606836 -0.249939
0.0103906 0.606875 -0.249928
0.00792969 0.606875 -0.249917
0.00546875 0.606875 -0.249905
0.00306641 0.606855 -0.249895
0.000644531 0.606855 -0.249888
-0.00181641 0.606855 -0.249891
-0.00427734 0.606875 -0.249899
-0.00667969 0.606875 -0.249911
-0.00912109 0.606855 -0.249923
-0.011582 0.606855 -0.249934
-0.0140234 0.606836 -0.249945
-0.0165039 0.606816 -0.249955
-0.0189258 0.606738 -0.249964
-0.0213281 0.60668 -0.249972
-0.0237891 0.606621 -0.24998
-0.0262109 0.606543 -0.249988
-0.0286523 0.606426 -0.249995
-0.0310742 0.606328 -0.250001
-0.0335352 0.60623 -0.250006
-0.035957 0.606074 -0.250011
-0.038457 0.605957 -0.250015
-0.0408398 0.605781 -0.250019
-0.0433008 0.605645 -0.250022
-0.0457227 0.605469 -0.250024
-0.0481445 0.605293 -0.250026
-0.0505664 0.605078 -0.250027
-0.0530078 0.604883 -0.250027
-0.0554102 0.604648 -0.250027
-0.0578711 0.604414 -0.250026
-0.060293 0.60418 -0.250025
-0.0627344 0.603926 -0.250023
-0.0651563 0.603672 -0.25002
-0.0676172 0.603398 -0.250017
-0.0700195 0.603105 -0.250013
-0.0724219 0.602812 -0.250008
-0.0748437 0.6025 -0.250003
-0.0772461 0.602168 -0.249997
-0.079668 0.601855 -0.249991
-0.0820898 0.601504 -0.249984
-0.0845117 0.601172 -0.249976
-0.0869531 0.60082 -0.249967
-0.0893555 0.60043 -0.249958
-0.0917773 0.60002 -0.249949
-0.0941602 0.599629 -0.249939
-0.096582 0.599219 -0.249928
-0.0989648 0.598789 -0.249916
-0.101367 0.598359 -0.249904
-0.10377 0.59791 -0.249891
-0.106191 0.597461 -0.249878
-0.108555 0.597012 -0.249864
-0.110957 0.596523 -0.249849
-0.113359 0.596055 -0.249834
-0.115742 0.595547 -0.249818
-0.118086 0.59502 -0.249801
-0.120469 0.594512 -0.249784
-0.122891 0.593984 -0.249767
-0.125254 0.593437 -0.249748
-0.127617 0.592891 -0.249729
-0.13002 0.592305 -0.249709
-0.132363 0.591758 -0.249689
-0.134746 0.591152 -0.249668
-0.13709 0.590566 -0.249647
-0.139473 0.589941 -0.249625
-0.141797 0.589316 -0.249602
-0.14416 0.588711 -0.249579
-0.146504 0.588047 -0.249555
-0.148848 0.587402 -0.24953
-0.15123 0.586738 -0.249505
-0.153574 0.586074 -0.249479
-0.155918 0.585391 -0.249453
-0.158242 0.584707 -0.249426
-0.160566 0.583965 -0.249398
-0.16291 0.583281 -0.24937
-0.165215 0.582539 -0.249341
-0.167559 0.581797 -0.249312
-0.169863 0.581055 -0.249281
-0.172129 0.580293 -0.249251
-0.174512 0.579551 -0.24922
-0.176777 0.57875 -0.249188
-0.179063 0.577969 -0.249155
-0.181387 0.577148 -0.249122
-0.183691 0.576367 -0.249088
-0.185996 0.575527 -0.249054
-0.188262 0.574687 -0.249019
-0.190625 0.574062 -0.249077
-0.192988 0.573438 -0.249134
-0.195352 0.572793 -0.249191
-0.197656 0.572109 -0.249247
-0.19998 0.571445 -0.249303
-0.202324 0.570762 -0.249358
-0.204629 0.570059 -0.249412
-0.207012 0.569355 -0.249465
-0.209336 0.568652 -0.249518
-0.21166 0.56793 -0.24957
-0.213965 0.567187 -0.249621
-0.216328 0.566445 -0.249671
-0.218652 0.565664 -0.249721
-0.220957 0.564902 -0.24977
-0.223262 0.564121 -0.249819
-0.225566 0.563301 -0.249866
-0.227871 0.562519 -0.249913
-0.230176 0.561699 -0.249959
-0.232441 0.560859 -0.250005
-0.234785 0.56 -0.25005
-0.23707 0.55918 -0.250094
-0.239336 0.55832 -0.250137
-0.24166 0.557461 -0.250179
-0.243906 0.556562 -0.250221
-0.246172 0.555664 -0.250262
-0.248477 0.554746 -0.250302
-0.250723 0.553848 -0.250342
-0.252988 0.55293 -0.250381
-0.255254 0.551992 -0.250419
-0.25752 0.551035 -0.250456
-0.259746 0.550078 -0.250493
-0.262012 0.549102 -0.250529
-0.264238 0.548125 -0.250564
-0.266484 0.547109 -0.250598
-0.268691 0.546133 -0.250632
-0.270957 0.545117 -0.250665
-0.273164 0.544102 -0.250697
-0.275371 0.543047 -0.250728
-0.277578 0.542031 -0.250759
-0.279805 0.540977 -0.250789
-0.282012 0.539902 -0.250818
-0.284219 0.538828 -0.250846
-0.286406 0.537734 -0.250874
-0.288594 0.536641 -0.2509
-0.290762 0.535508 -0.250926
-0.292949 0.534395 -0.250952
-0.295137 0.533281 -0.250976
-0.297285 0.532109 -0.251
-0.299492 0.530977 -0.251023
-0.301641 0.529824 -0.251045
-0.303789 0.528652 -0.251067
-0.305937 0.527461 -0.251087
-0.308066 0.526269 -0.251107
-0.310215 0.525078 -0.251127
-0.312324 0.523848 -0.251145
-0.314492 0.522637 -0.251163
-0.316582 0.521406 -0.251179
-0.318691 0.520156 -0.251196
-0.320801 0.518906 -0.251211
-0.32293 0.517637 -0.251225
-0.32498 0.516348 -0.251239
-0.32709 0.515078 -0.251252
-0.32916 0.513789 -0.251264
-0.33127 0.5125 -0.251276
-0.33332 0.511172 -0.251287
-0.33543 0.509844 -0.251297
-0.337461 0.508516 -0.251306
-0.339512 0.507168 -0.251314
-0.341543 0.505801 -0.251322
-0.343613 0.504453 -0.251329
-0.345645 0.503086 -0.251335
-0.347656 0.501699 -0.25134
-0.349824 0.500469 -0.251431
-0.351953 0.499277 -0.251535
-0.354102 0.498066 -0.251638
-0.35623 0.496816 -0.251741
-0.358379 0.495586 -0.251842
-0.360469 0.494336 -0.251943
-0.362676 0.493105 -0.252044
-0.364766 0.491836 -0.252143
-0.366855 0.490527 -0.252242
-0.369004 0.489238 -0.252339
-0.371094 0.487949 -0.252437
-0.373184 0.486621 -0.252533
-0.375293 0.485332 -0.252628
-0.377402 0.483984 -0.252723
-0.379492 0.482656 -0.252817
-0.381543 0.481309 -0.25291
-0.383613 0.479941 -0.253002
-0.386133 0.479102 -0.253379
-0.389453 0.479297 -0.254311
-0.392852 0.479473 -0.255246
-0.396211 0.479648 -0.256184
-0.39959 0.479844 -0.257126
-0.403008 0.47998 -0.25807
-0.406387 0.480098 -0.259018
-0.409785 0.480195 -0.259968
-0.413613 0.480703 -0.261129
-0.417695 0.481504 -0.262476
-0.421777 0.482324 -0.263831
-0.425918 0.483105 -0.265194
-0.43002 0.483848 -0.266565
-0.434238 0.484629 -0.267944
-0.438418 0.485371 -0.269331
-0.442637 0.486094 -0.270726
-0.446934 0.486836 -0.272129
-0.451191 0.487539 -0.273541
-0.455488 0.488242 -0.274961
-0.459844 0.488945 -0.276388
-0.464238 0.489629 -0.277824
-0.468574 0.490273 -0.279268
-0.473008 0.490938 -0.28072
-0.477441 0.491582 -0.28218
-0.481914 0.492188 -0.283649
-0.486387 0.492812 -0.285125
-0.490938 0.493398 -0.286609
-0.495488 0.493984 -0.288102
-0.500019 0.494551 -0.289602
-0.504629 0.495117 -0.291111
-0.509258 0.495645 -0.292628
-0.513926 0.496172 -0.294153
-0.523516 -0.846719 -0.422886
-0.508652 -0.830117 -0.413568
-0.494355 -0.81416 -0.404629
-0.480664 -0.798828 -0.396048
-0.4675 -0.784102 -0.387803
-0.454863 -0.769922 -0.379876
-0.442695 -0.756211 -0.372248
-0.430937 -0.743047 -0.364902
-0.380918 -0.662832 -0.324765
-0.378418 -0.664688 -0.324924
-0.375957 -0.666523 -0.325079
-0.373437 -0.66834 -0.325231
-0.370918 -0.670137 -0.325379
-0.368398 -0.671934 -0.325524
-0.36584 -0.673711 -0.325666
-0.363281 -0.675449 -0.325804
-0.360684 -0.677188 -0.32594
-0.358145 -0.678887 -0.326071
-0.355547 -0.680605 -0.326199
-0.352891 -0.682285 -0.326324
-0.350313 -0.683945 -0.326446
-0.347695 -0.685605 -0.326564
-0.345039 -0.687246 -0.326678
-0.342363 -0.688887 -0.326789
-0.339727 -0.690469 -0.326897
-0.337051 -0.692051 -0.327001
-0.334395 -0.693594 -0.327102
-0.331699 -0.695137 -0.327199
-0.329004 -0.69668 -0.327292
-0.326289 -0.698164 -0.327383
-0.323555 -0.699687 -0.327469
