ply
format ascii 1.0
comment Created by Open3D
element vertex 1785
property float x
property float y
property float z
end_header
2.77656 -2.62719 -0.739718
2.78488 -2.61391 -0.739125
2.79312 -2.60063 -0.738541
2.80141 -2.58734 -0.737967
2.80965 -2.57414 -0.737404
2.81781 -2.56086 -0.736851
2.82598 -2.54766 -0.736308
2.83418 -2.53445 -0.735775
2.84234 -2.52121 -0.735252
2.85047 -2.50805 -0.734739
2.85855 -2.49484 -0.734236
2.8666 -2.48168 -0.733743
2.87465 -2.46844 -0.733259
2.88273 -2.45531 -0.732785
2.89074 -2.44215 -0.732322
2.89871 -2.42906 -0.731868
2.90672 -2.41594 -0.731421
2.91469 -2.40273 -0.730982
2.92254 -2.38961 -0.730553
2.93043 -2.37648 -0.730133
2.93941 -2.36418 -0.729987
2.95055 -2.35367 -0.730397
2.96164 -2.34312 -0.730816
2.97277 -2.33258 -0.731244
2.98395 -2.32195 -0.731683
2.99508 -2.31145 -0.732132
3.00625 -2.30078 -0.732591
3.01738 -2.29016 -0.73306
3.02855 -2.27953 -0.733538
3.03977 -2.26883 -0.734026
3.0509 -2.25813 -0.734525
3.06207 -2.24742 -0.735033
3.0732 -2.2366 -0.735552
3.08496 -2.22625 -0.736205
3.09668 -2.21578 -0.736869
3.1084 -2.20535 -0.737545
3.12008 -2.19484 -0.738229
3.13184 -2.18438 -0.738924
3.14359 -2.17379 -0.739628
3.15535 -2.16328 -0.740342
3.16711 -2.15266 -0.741066
3.18059 -2.14313 -0.742181
3.19535 -2.13445 -0.743633
3.21023 -2.12578 -0.745099
3.22516 -2.11711 -0.746579
3.24012 -2.10832 -0.748073
3.25508 -2.09949 -0.749581
3.27016 -2.09066 -0.751104
3.28523 -2.08172 -0.752642
3.30043 -2.07273 -0.754194
3.31785 -2.0652 -0.756289
3.34246 -2.06195 -0.760005
3.36734 -2.05859 -0.763761
3.3923 -2.05523 -0.76756
3.41762 -2.0518 -0.7714
3.44305 -2.04828 -0.775283
3.46871 -2.04473 -0.779209
3.49461 -2.04109 -0.783179
3.52078 -2.03742 -0.787195
3.56074 -2.04156 -0.794303
3.61953 -2.05594 -0.805548
3.68937 -2.07605 -0.819229
3.76918 -2.10102 -0.835069
3.85645 -2.12937 -0.852507
3.97984 -2.17672 -0.877845
4.15734 -2.25211 -0.914985
2.72363 6.18078 -1.30707
2.68148 6.15203 -1.29871
2.63988 6.12371 -1.29047
2.60641 6.11352 -1.2861
2.58793 6.13867 -1.28919
2.56953 6.16391 -1.29232
2.55094 6.18934 -1.29549
2.54414 6.24391 -1.30477
2.51352 6.24047 -1.30192
2.49469 6.26625 -1.3052
2.47574 6.29215 -1.30851
2.45672 6.3182 -1.31186
2.43492 6.3375 -1.31384
2.39648 6.3132 -1.30678
2.37039 6.32082 -1.30638
2.35113 6.34711 -1.30984
2.33191 6.37352 -1.31335
2.32141 6.42492 -1.32201
2.29234 6.42523 -1.32016
2.30074 6.53152 -1.34009
2.28078 6.55883 -1.3438
2.26066 6.58633 -1.34756
2.25945 6.66992 -1.36279
2.21957 6.63992 -1.35483
2.17992 6.60957 -1.34684
2.14074 6.57953 -1.33896
2.10594 6.56215 -1.33368
2.08523 6.58852 -1.33733
2.06598 6.62 -1.34204
2.0466 6.65188 -1.3468
2.02613 6.68078 -1.351
2.00379 6.7041 -1.35408
1.98137 6.72758 -1.35719
1.95887 6.75109 -1.36034
1.93609 6.77418 -1.36342
1.91312 6.79719 -1.36649
1.89008 6.82031 -1.3696
1.86699 6.84355 -1.37275
1.84367 6.86695 -1.37594
1.82133 6.8943 -1.37995
1.81187 6.97187 -1.394
1.80281 7.05328 -1.40882
1.79047 7.1243 -1.42156
1.76828 7.15766 -1.42678
1.74598 7.19129 -1.43207
1.69039 7.08664 -1.40988
1.65961 7.0834 -1.40789
1.67785 7.29328 -1.44825
1.66984 7.39434 -1.46698
1.64594 7.42715 -1.47215
1.56027 7.77773 -1.53512
1.52437 7.76016 -1.53044
1.48863 7.74277 -1.5258
1.45309 7.72531 -1.52122
1.4223 7.73289 -1.52156
1.39656 7.76816 -1.52738
1.37063 7.80367 -1.53327
-4.29297 6.30242 -1.4757
-4.30742 6.26937 -1.472
-4.32188 6.23648 -1.46834
-4.33621 6.20375 -1.46473
-4.35043 6.17117 -1.46116
-4.365 6.13922 -1.45774
-4.38027 6.10859 -1.45463
-4.41863 6.11004 -1.45919
-4.47914 6.14164 -1.47102
-4.54074 6.17375 -1.48307
-4.60332 6.20637 -1.49535
-4.66691 6.23953 -1.50785
-4.73152 6.27328 -1.52059
-4.79734 6.30762 -1.53357
-4.8643 6.3425 -1.5468
-4.93234 6.37805 -1.56028
-2.13426 -3.27273 -0.801109
-1.88402 -2.91453 -0.711588
-1.83199 -2.85918 -0.69626
-1.78207 -2.80609 -0.681582
-1.72754 -2.74449 -0.664932
-1.6975 -2.72109 -0.657584
-1.68492 -2.72523 -0.656956
-1.67242 -2.72941 -0.656335
-1.65984 -2.73352 -0.655721
-1.64762 -2.73812 -0.655233
-1.63555 -2.74293 -0.654799
-1.6234 -2.74766 -0.654371
-1.61133 -2.75242 -0.65395
-1.59922 -2.75715 -0.653535
-1.58719 -2.76184 -0.653126
-1.57508 -2.76648 -0.652723
-1.56297 -2.77109 -0.652327
-1.5509 -2.7757 -0.651936
-1.53879 -2.78023 -0.651553
-1.52672 -2.78477 -0.651174
-1.51469 -2.7893 -0.650802
-1.50258 -2.79383 -0.650437
-1.49055 -2.79828 -0.650077
-1.47848 -2.80277 -0.649723
-1.46637 -2.80711 -0.649376
-1.45434 -2.81156 -0.649035
-1.44227 -2.81594 -0.648699
-1.43023 -2.82023 -0.64837
-1.41816 -2.82461 -0.648046
-1.40609 -2.82891 -0.647729
-1.39406 -2.83312 -0.647417
-1.38195 -2.83734 -0.647112
-1.36992 -2.84156 -0.646812
-1.35789 -2.84574 -0.646519
-1.34586 -2.84992 -0.646231
-1.33379 -2.85406 -0.64595
-1.32176 -2.8582 -0.645674
-1.30973 -2.8623 -0.645404
-1.29754 -2.86617 -0.645097
-1.2852 -2.86945 -0.644681
-1.27285 -2.87281 -0.644271
-1.26047 -2.87613 -0.643867
-1.24816 -2.87937 -0.643469
-1.23582 -2.88258 -0.643078
-1.22418 -2.88746 -0.643053
-1.21254 -2.8923 -0.643038
-1.20086 -2.89711 -0.643027
-1.18918 -2.90188 -0.64302
-1.1775 -2.90664 -0.643017
-1.16582 -2.91133 -0.643019
-1.1541 -2.91602 -0.643025
-1.14242 -2.9207 -0.643035
-1.13074 -2.92531 -0.64305
-1.11895 -2.92992 -0.643068
-1.10719 -2.93453 -0.643092
-1.09547 -2.93906 -0.643119
-1.08367 -2.94359 -0.643151
-1.07187 -2.94809 -0.643187
-1.06008 -2.9525 -0.643228
-1.04832 -2.95703 -0.643273
-1.03645 -2.96141 -0.643322
-1.02465 -2.96586 -0.643383
-1.01316 -2.97117 -0.643653
-1.00164 -2.97648 -0.643926
-0.990078 -2.98176 -0.644205
-0.978555 -2.98703 -0.644488
-0.966914 -2.99227 -0.644775
-0.955312 -2.9975 -0.645067
-0.943672 -3.00266 -0.645363
-0.93207 -3.00789 -0.645664
-0.920391 -3.01305 -0.645969
-0.90875 -3.01812 -0.646279
-0.896953 -3.02328 -0.646594
-0.885273 -3.02828 -0.646913
-0.873555 -3.03336 -0.647236
-0.861836 -3.0384 -0.647564
-0.850586 -3.04555 -0.648355
-0.839414 -3.05281 -0.649189
-0.828242 -3.06016 -0.650031
-0.817031 -3.06746 -0.65088
-0.805703 -3.07477 -0.651737
-0.794336 -3.08207 -0.652601
-0.783047 -3.08938 -0.653473
-0.771641 -3.09668 -0.654353
-0.760195 -3.10391 -0.655224
-0.748516 -3.11027 -0.655942
-0.736836 -3.11672 -0.656667
-0.725156 -3.12312 -0.6574
-0.713359 -3.12953 -0.658139
-0.701562 -3.13594 -0.658885
-0.689766 -3.14234 -0.659639
-0.677891 -3.14867 -0.6604
-0.666016 -3.15504 -0.661169
-0.654063 -3.16145 -0.661944
-0.642109 -3.16781 -0.662727
-0.630078 -3.1741 -0.663518
-0.618164 -3.18047 -0.664316
-0.606055 -3.18676 -0.665121
-0.593945 -3.19305 -0.665934
-0.581836 -3.19937 -0.666754
-0.569687 -3.20562 -0.667582
-0.557461 -3.21191 -0.668417
-0.545234 -3.2182 -0.66926
-0.533125 -3.22531 -0.670285
-0.520977 -3.23262 -0.671372
-0.508867 -3.24 -0.672469
-0.496562 -3.24734 -0.673575
-0.484336 -3.25469 -0.674691
-0.472031 -3.26203 -0.675816
-0.459727 -3.26945 -0.676951
-0.447344 -3.27676 -0.678096
-0.434883 -3.28414 -0.679251
-0.422422 -3.29148 -0.680415
-0.409844 -3.29879 -0.68159
-0.397305 -3.30621 -0.682774
1.42707 -5.23117 -1.11179
1.42008 -5.12437 -1.09029
1.41547 -5.0291 -1.07123
1.42152 -4.97387 -1.06067
1.42945 -4.92652 -1.0518
1.43844 -4.88398 -1.04393
1.4493 -4.84883 -1.03766
1.45996 -4.81406 -1.03147
1.47062 -4.77973 -1.02537
1.48109 -4.74578 -1.01936
1.49336 -4.7184 -1.01475
1.50602 -4.6927 -1.01053
1.51855 -4.66727 -1.00635
1.53098 -4.64203 -1.00223
1.54332 -4.61699 -0.99815
1.55617 -4.59387 -0.994493
1.56918 -4.57164 -0.991052
1.5818 -4.54879 -0.987459
1.59422 -4.52578 -0.983853
1.60652 -4.50293 -0.980288
1.61883 -4.48035 -0.976764
1.63094 -4.45781 -0.973278
1.64301 -4.43547 -0.969831
1.655 -4.41324 -0.966423
1.66703 -4.39148 -0.963137
1.67953 -4.37141 -0.960196
1.69379 -4.35617 -0.958328
1.70801 -4.34094 -0.956481
1.72215 -4.32578 -0.954657
1.73625 -4.31063 -0.952854
1.75027 -4.29555 -0.951073
1.76426 -4.28062 -0.949314
1.7782 -4.26562 -0.947575
1.79207 -4.2507 -0.945858
1.8059 -4.23586 -0.944161
1.8166 -4.21402 -0.940911
1.82637 -4.19023 -0.937222
1.83602 -4.16656 -0.933576
1.84562 -4.14313 -0.929973
1.85527 -4.12008 -0.926477
1.86629 -4.10047 -0.923741
1.87723 -4.08094 -0.921033
1.88816 -4.06148 -0.918355
1.89895 -4.04215 -0.915706
1.90965 -4.02297 -0.913085
1.92035 -4.00383 -0.910493
1.93094 -3.98484 -0.907929
1.94156 -3.96594 -0.905393
1.95223 -3.94742 -0.902946
1.96273 -3.92898 -0.900528
1.97336 -3.91062 -0.898137
1.98375 -3.89242 -0.895771
1.99418 -3.8743 -0.893432
2.00449 -3.85617 -0.891114
2.0148 -3.8382 -0.888818
2.02504 -3.82023 -0.886546
2.0352 -3.80242 -0.884299
2.04527 -3.78469 -0.882077
2.05535 -3.76703 -0.879879
2.06539 -3.74937 -0.877705
2.07531 -3.73195 -0.875554
2.08527 -3.71453 -0.873427
2.09512 -3.69719 -0.871324
2.10492 -3.67988 -0.869243
2.11465 -3.66273 -0.867185
2.12434 -3.64562 -0.865149
2.13398 -3.62859 -0.863137
2.14363 -3.61164 -0.861146
2.1532 -3.59473 -0.859176
2.16277 -3.57793 -0.857235
2.1723 -3.56137 -0.855338
2.18184 -3.54484 -0.853463
2.19121 -3.5282 -0.851577
2.20051 -3.5116 -0.849707
2.20984 -3.49512 -0.847856
2.21898 -3.47871 -0.846027
2.2282 -3.46227 -0.844218
2.23734 -3.44602 -0.842429
2.24652 -3.42977 -0.84066
2.25555 -3.41359 -0.838912
2.26457 -3.39746 -0.837183
2.27352 -3.38148 -0.835474
2.28254 -3.36547 -0.833784
2.29141 -3.34953 -0.832114
2.30082 -3.33445 -0.830661
2.31035 -3.31961 -0.829265
2.31977 -3.30477 -0.827884
2.32922 -3.28996 -0.826518
2.33863 -3.27523 -0.825167
2.34793 -3.26047 -0.823832
2.35723 -3.24586 -0.822511
2.36652 -3.23121 -0.821205
2.3757 -3.2166 -0.819913
2.38492 -3.20203 -0.818636
2.39406 -3.18746 -0.817374
2.40301 -3.17281 -0.816079
2.41195 -3.15805 -0.814786
2.42082 -3.14344 -0.813507
2.42965 -3.12879 -0.812243
2.43816 -3.11391 -0.810916
2.44672 -3.09902 -0.809586
2.45512 -3.08406 -0.808271
2.46352 -3.0693 -0.806971
2.47195 -3.05449 -0.805686
2.48027 -3.03973 -0.804415
2.48859 -3.025 -0.803158
2.49684 -3.01031 -0.801916
2.50508 -2.99563 -0.800687
2.51328 -2.98098 -0.799473
2.52148 -2.96645 -0.798273
2.52957 -2.95187 -0.797087
2.53773 -2.93734 -0.795914
2.54574 -2.92281 -0.794755
2.55387 -2.9084 -0.79361
2.5618 -2.89398 -0.792479
2.5698 -2.87961 -0.791361
2.57777 -2.86523 -0.790256
2.5857 -2.8509 -0.789165
2.59359 -2.83664 -0.788087
2.60148 -2.82234 -0.787022
2.6093 -2.80813 -0.78597
2.61707 -2.79391 -0.784931
2.62488 -2.77969 -0.783905
2.63262 -2.76555 -0.782892
2.64035 -2.75145 -0.781891
2.64836 -2.73766 -0.781004
2.6568 -2.72441 -0.780258
2.66523 -2.71117 -0.779522
2.67359 -2.69789 -0.778798
2.68195 -2.68469 -0.778085
2.69035 -2.67148 -0.777382
2.69863 -2.65824 -0.776691
2.70699 -2.64516 -0.776018
2.71527 -2.63195 -0.775363
2.72355 -2.61883 -0.774719
2.73184 -2.60578 -0.774084
2.74008 -2.59266 -0.773461
2.74828 -2.57957 -0.772849
2.75648 -2.56648 -0.772246
2.76469 -2.55344 -0.771654
2.77281 -2.54039 -0.771073
2.78094 -2.52734 -0.770502
2.78902 -2.51437 -0.769938
2.79703 -2.50129 -0.769384
2.8052 -2.48828 -0.768839
2.81316 -2.47523 -0.768305
2.82117 -2.46223 -0.767781
2.82914 -2.44922 -0.767267
2.83711 -2.43625 -0.766763
2.845 -2.42328 -0.76627
2.85297 -2.41023 -0.765786
2.86086 -2.39734 -0.765313
2.86871 -2.38434 -0.76485
2.87656 -2.37137 -0.764397
2.88445 -2.35844 -0.763954
2.89227 -2.34547 -0.763521
2.90285 -2.33484 -0.763837
2.91379 -2.32441 -0.764259
2.92484 -2.31398 -0.764693
2.93582 -2.30352 -0.765136
2.94676 -2.29305 -0.76559
2.95777 -2.28258 -0.766053
2.96871 -2.27211 -0.766528
2.97977 -2.26156 -0.767011
2.99074 -2.25102 -0.767506
3.00172 -2.24047 -0.768011
3.01273 -2.22984 -0.768525
3.02352 -2.21914 -0.768998
3.03406 -2.20812 -0.769417
3.04461 -2.19711 -0.769846
3.05516 -2.18617 -0.770284
3.0657 -2.17508 -0.770732
3.07629 -2.16398 -0.77119
3.08684 -2.15297 -0.771657
3.09734 -2.14184 -0.772134
3.10789 -2.13074 -0.772621
3.11848 -2.11961 -0.773118
3.12883 -2.10832 -0.773585
3.13895 -2.0968 -0.774
3.14906 -2.08531 -0.774425
3.15926 -2.07383 -0.774859
3.16934 -2.06227 -0.775303
3.18313 -2.05305 -0.776646
3.19879 -2.045 -0.778455
3.21449 -2.03688 -0.78028
3.23023 -2.02871 -0.782119
3.24609 -2.02055 -0.783974
3.26195 -2.01223 -0.785845
3.27781 -2.00391 -0.787731
3.29379 -1.99551 -0.789633
3.3098 -1.98711 -0.791551
3.32586 -1.97859 -0.793485
3.34199 -1.97 -0.795434
3.36543 -1.9657 -0.799143
3.42055 -1.97949 -0.810326
3.47719 -1.99359 -0.821834
3.53543 -2.00816 -0.833682
3.59059 -2.02051 -0.844772
3.64402 -2.03133 -0.855422
3.71508 -2.05137 -0.870147
3.79969 -2.0782 -0.888
3.89234 -2.10855 -0.907667
2.71316 6.15715 -1.37959
2.67008 6.12586 -1.37018
2.62871 6.09781 -1.36152
2.60637 6.11352 -1.36268
2.58801 6.13867 -1.36596
2.56949 6.16398 -1.36927
2.57441 6.24625 -1.38525
2.5323 6.21484 -1.37602
2.51355 6.24055 -1.37945
2.49469 6.26629 -1.38292
2.47574 6.29223 -1.38643
2.45441 6.31238 -1.38869
2.41598 6.2882 -1.38122
2.38949 6.29477 -1.38054
2.37035 6.32086 -1.38417
2.37953 6.42375 -1.40459
2.36004 6.45047 -1.40835
2.3598 6.53117 -1.42388
2.3207 6.50453 -1.41602
2.30074 6.53156 -1.41989
2.28078 6.55887 -1.42382
2.2607 6.58637 -1.4278
2.25406 6.65394 -1.44048
2.21492 6.62602 -1.4325
2.17629 6.59844 -1.42462
2.15051 6.60953 -1.42515
2.13 6.63711 -1.42924
2.10941 6.66492 -1.43339
2.08871 6.69297 -1.4376
2.06555 6.71359 -1.44023
2.04098 6.7298 -1.44194
2.01633 6.74609 -1.44368
1.99164 6.76238 -1.44544
1.96887 6.78547 -1.44868
1.94719 6.81305 -1.45288
1.9257 6.84172 -1.45733
1.90406 6.87086 -1.46189
1.88238 6.90016 -1.46652
1.86164 6.93398 -1.47209
1.84344 6.97785 -1.47983
1.82496 7.02223 -1.48767
1.80637 7.06715 -1.49563
1.79043 7.1241 -1.50615
1.78336 7.47625 -1.57594
1.74293 7.43895 -1.56659
1.70289 7.40211 -1.55737
1.66988 7.39441 -1.55433
1.6459 7.42719 -1.55982
1.62184 7.46016 -1.56536
1.5975 7.4934 -1.57097
1.57301 7.52688 -1.57665
1.54836 7.56062 -1.5824
1.52352 7.59453 -1.58821
1.49855 7.62875 -1.59409
1.47336 7.6632 -1.60004
1.44789 7.69797 -1.60607
1.42238 7.73297 -1.61216
1.3966 7.7682 -1.61832
-4.35191 6.33402 -1.57572
-4.36633 6.30062 -1.57177
-4.38066 6.26742 -1.56787
-4.395 6.23438 -1.56401
-4.4093 6.20152 -1.5602
-4.42352 6.16891 -1.55644
-4.43766 6.13641 -1.55273
-4.47914 6.14164 -1.5586
-4.54074 6.17375 -1.57137
-4.60332 6.20637 -1.58438
-4.66691 6.23953 -1.59762
-4.73152 6.27328 -1.61112
-4.79734 6.30762 -1.62487
-2.2441 -3.38148 -0.879096
-1.91637 -2.91301 -0.755294
-1.85242 -2.84063 -0.734583
-1.79188 -2.77195 -0.714976
-1.74016 -2.71594 -0.698713
-1.70301 -2.6816 -0.68811
-1.67062 -2.6541 -0.679326
-1.65836 -2.65828 -0.678685
-1.64617 -2.6625 -0.678052
-1.63391 -2.6666 -0.677426
-1.62168 -2.6707 -0.676807
-1.60949 -2.67477 -0.676195
-1.59727 -2.67883 -0.675591
-1.58508 -2.68281 -0.674995
-1.57297 -2.68684 -0.674405
-1.56078 -2.69082 -0.673823
-1.54863 -2.6948 -0.673248
-1.53645 -2.69875 -0.67268
-1.52434 -2.70258 -0.672119
-1.51219 -2.70648 -0.671565
-1.50008 -2.71031 -0.671019
-1.48816 -2.71445 -0.670554
-1.47645 -2.71891 -0.67018
-1.46465 -2.72336 -0.669813
-1.45293 -2.7277 -0.669452
-1.44121 -2.73211 -0.669097
-1.42945 -2.73645 -0.668748
-1.4177 -2.7407 -0.668406
-1.40594 -2.74508 -0.668069
-1.39422 -2.7493 -0.667738
-1.3825 -2.75355 -0.667413
-1.37078 -2.75781 -0.667095
-1.35902 -2.76195 -0.666782
-1.3473 -2.76613 -0.666475
-1.33555 -2.77031 -0.666175
-1.32383 -2.77437 -0.66588
-1.31215 -2.77852 -0.665591
-1.30039 -2.78258 -0.665309
-1.28863 -2.78664 -0.665032
-1.27691 -2.79062 -0.664761
-1.26488 -2.79398 -0.66434
-1.25285 -2.79727 -0.663922
-1.24082 -2.80055 -0.66351
-1.22879 -2.80375 -0.663105
-1.2168 -2.80699 -0.662706
-1.20477 -2.8102 -0.662313
-1.19277 -2.8134 -0.661926
-1.18082 -2.81652 -0.661545
-1.16875 -2.81969 -0.66117
-1.1568 -2.82277 -0.660801
-1.1448 -2.82586 -0.660439
-1.13281 -2.82891 -0.660082
-1.12082 -2.83187 -0.659732
-1.10887 -2.83488 -0.659387
-1.09691 -2.83789 -0.659048
-1.08492 -2.84086 -0.658716
-1.07297 -2.84379 -0.65839
-1.06102 -2.84672 -0.658069
-1.0491 -2.84953 -0.657755
-1.03766 -2.85383 -0.657777
-1.02621 -2.8582 -0.657817
-1.01477 -2.8625 -0.657861
-1.00332 -2.86672 -0.65791
-0.991914 -2.87102 -0.657963
-0.98043 -2.87523 -0.65802
-0.96918 -2.88012 -0.658251
-0.958047 -2.8852 -0.658527
-0.946797 -2.89027 -0.658806
-0.935586 -2.89531 -0.65909
-0.924414 -2.90047 -0.659415
-0.913828 -2.90758 -0.660184
-0.903164 -2.91461 -0.660959
-0.8925 -2.92168 -0.661743
-0.881758 -2.92875 -0.662533
-0.871094 -2.93578 -0.66333
-0.860352 -2.94285 -0.664136
-0.849492 -2.94984 -0.664948
-0.838672 -2.95687 -0.665767
-0.827812 -2.96391 -0.666595
-0.816875 -2.9709 -0.667429
-0.805937 -2.97793 -0.668271
-0.795039 -2.98496 -0.66912
-0.783984 -2.99195 -0.669977
-0.772969 -2.99891 -0.670842
-0.761875 -3.00594 -0.671714
-0.750781 -3.01293 -0.672594
-0.739648 -3.01992 -0.673481
-0.728477 -3.02684 -0.674377
-0.717227 -3.03383 -0.67528
-0.705898 -3.04039 -0.676104
-0.694453 -3.04656 -0.676845
-0.68293 -3.05266 -0.677592
-0.671406 -3.05875 -0.678347
-0.659883 -3.06492 -0.679109
-0.648281 -3.07098 -0.679878
-0.636641 -3.07707 -0.680654
-0.624961 -3.0832 -0.681438
-0.61332 -3.08926 -0.682228
-0.60168 -3.09578 -0.683135
-0.590117 -3.10281 -0.684162
-0.578438 -3.10984 -0.685198
-0.566836 -3.11691 -0.686244
-0.555195 -3.12398 -0.687299
-0.543477 -3.13102 -0.688363
-0.53168 -3.13812 -0.689436
-0.519844 -3.14516 -0.690519
-0.508047 -3.15215 -0.69161
-0.496133 -3.15922 -0.692712
-0.484258 -3.16625 -0.693823
-0.472187 -3.17328 -0.694943
-0.460234 -3.18035 -0.696073
-0.448203 -3.18734 -0.697213
-0.436094 -3.19441 -0.698363
-0.423945 -3.20141 -0.699522
-0.411758 -3.20848 -0.700691
-0.399531 -3.21543 -0.70187
-0.387227 -3.2225 -0.703059
-0.374961 -3.22953 -0.704258
-0.362539 -3.23656 -0.705467
1.40754 -5.2425 -1.17581
1.40648 -5.15562 -1.15759
1.40062 -5.05414 -1.13606
1.40473 -4.99086 -1.12309
1.41172 -4.93945 -1.11279
1.42277 -4.90336 -1.10594
1.43367 -4.86773 -1.0992
1.44445 -4.83258 -1.09256
1.45504 -4.79781 -1.08601
1.46559 -4.76344 -1.07956
1.47551 -4.72805 -1.07287
1.48871 -4.70375 -1.06872
1.50191 -4.67973 -1.06462
1.51469 -4.65531 -1.06044
1.52742 -4.63109 -1.05631
1.53996 -4.60703 -1.05222
1.55254 -4.5832 -1.04819
1.56488 -4.55914 -1.04413
1.57703 -4.53508 -1.04006
1.5891 -4.51121 -1.03604
1.60105 -4.4875 -1.03207
1.61301 -4.46422 -1.02819
1.62797 -4.44961 -1.02634
1.64035 -4.42828 -1.02293
1.6527 -4.40711 -1.01956
1.6652 -4.3868 -1.01639
1.67793 -4.36719 -1.01341
1.69094 -4.34891 -1.01074
1.70437 -4.33187 -1.00835
1.71828 -4.31609 -1.00628
1.73238 -4.30102 -1.00439
1.74637 -4.28602 -1.00251
1.76031 -4.27102 -1.00066
1.77422 -4.25617 -0.998834
1.78809 -4.24133 -0.997028
1.80078 -4.22391 -0.994641
1.81055 -4.20008 -0.990724
1.82031 -4.17633 -0.986853
1.83 -4.15285 -0.983027
1.83957 -4.12949 -0.979245
1.84906 -4.10637 -0.975507
1.85852 -4.08328 -0.971813
1.86828 -4.06156 -0.968407
1.87918 -4.04227 -0.965604
1.88992 -4.02312 -0.962832
1.90066 -4.00406 -0.960089
1.91133 -3.98508 -0.957377
1.92195 -3.96621 -0.954693
1.93262 -3.94766 -0.952088
1.9432 -3.9293 -0.94953
1.95379 -3.91102 -0.946999
1.9643 -3.89277 -0.944496
1.97469 -3.87465 -0.942019
1.98512 -3.85664 -0.93957
1.99547 -3.83875 -0.937147
2.00566 -3.82082 -0.93475
2.0159 -3.80309 -0.93238
2.02605 -3.78539 -0.930031
2.03617 -3.76777 -0.927704
2.04621 -3.75027 -0.925403
2.05617 -3.73281 -0.923126
2.06609 -3.71539 -0.920874
2.07602 -3.69812 -0.918647
2.08586 -3.68086 -0.916445
2.09566 -3.66371 -0.914266
2.10535 -3.64664 -0.91211
2.11504 -3.62961 -0.909979
2.12477 -3.61273 -0.907871
2.13426 -3.59586 -0.905786
2.14383 -3.5791 -0.903724
2.15344 -3.56254 -0.901714
2.16297 -3.54602 -0.899728
2.17246 -3.52957 -0.897764
2.18187 -3.5132 -0.895822
2.19129 -3.4968 -0.893902
2.20059 -3.48062 -0.892003
2.20988 -3.46438 -0.89011
2.21902 -3.44809 -0.888214
2.2282 -3.43187 -0.88634
2.23727 -3.41574 -0.884486
2.24629 -3.39969 -0.882654
2.25535 -3.38367 -0.880843
2.2643 -3.36773 -0.879052
2.27328 -3.3518 -0.877281
2.28215 -3.33598 -0.875531
2.29098 -3.3202 -0.8738
2.29984 -3.30445 -0.872089
2.30859 -3.28883 -0.870398
2.31734 -3.2732 -0.868727
2.32602 -3.25766 -0.867075
2.33469 -3.24219 -0.865442
2.34332 -3.22672 -0.863828
2.35195 -3.21137 -0.862233
2.36051 -3.19602 -0.860656
2.36902 -3.1807 -0.859098
2.37754 -3.16547 -0.857559
2.38605 -3.15031 -0.856038
2.39445 -3.13523 -0.854535
2.40305 -3.12035 -0.853123
2.41168 -3.1057 -0.851748
2.4202 -3.09086 -0.850341
2.42828 -3.07566 -0.848845
2.43641 -3.06055 -0.847366
2.44445 -3.04547 -0.845906
2.45246 -3.03043 -0.844464
2.46047 -3.01547 -0.843039
2.46848 -3.00055 -0.841632
2.47645 -2.98563 -0.840243
2.48434 -2.97082 -0.83887
2.49215 -2.95602 -0.837515
2.50008 -2.94125 -0.836178
2.50789 -2.92652 -0.834856
2.5157 -2.91188 -0.833552
2.52348 -2.8973 -0.832265
2.53125 -2.88273 -0.830994
2.53895 -2.86812 -0.82974
2.5466 -2.85367 -0.828502
2.55434 -2.83922 -0.82728
2.56199 -2.82477 -0.826075
2.56965 -2.81039 -0.824886
2.57723 -2.79609 -0.823712
2.58484 -2.7818 -0.822554
2.59242 -2.76754 -0.821413
2.59996 -2.75336 -0.820286
2.60742 -2.73914 -0.819176
2.61488 -2.725 -0.818081
2.62238 -2.71086 -0.817001
2.6298 -2.69676 -0.815937
2.63727 -2.68273 -0.814887
2.64465 -2.66875 -0.813853
2.65207 -2.65469 -0.812834
2.65945 -2.64078 -0.81183
2.66676 -2.62684 -0.81084
2.67363 -2.61258 -0.809733
2.6818 -2.59953 -0.809038
2.69008 -2.58664 -0.808386
2.69828 -2.57375 -0.807747
2.70656 -2.56094 -0.807121
2.71473 -2.54809 -0.806508
2.72293 -2.53527 -0.805907
2.73113 -2.52246 -0.805319
2.73926 -2.50969 -0.804743
2.74742 -2.49691 -0.804179
2.75555 -2.48414 -0.803628
2.76359 -2.47137 -0.803089
2.77172 -2.45859 -0.802563
2.7798 -2.44586 -0.802048
2.78789 -2.4332 -0.801547
2.79594 -2.42047 -0.801057
2.80398 -2.40777 -0.800579
2.81195 -2.39508 -0.800114
2.82 -2.38242 -0.799661
2.82801 -2.36977 -0.799219
2.83598 -2.35711 -0.79879
2.84395 -2.34445 -0.798373
2.85184 -2.3318 -0.797968
2.85836 -2.31801 -0.797181
2.86723 -2.30617 -0.797056
2.87609 -2.2943 -0.796941
2.88586 -2.2832 -0.797099
2.89629 -2.27254 -0.797441
2.90664 -2.26187 -0.797792
2.91703 -2.25117 -0.798154
2.92742 -2.24047 -0.798525
2.93773 -2.22977 -0.798906
2.9482 -2.21898 -0.799296
2.95855 -2.20824 -0.799697
2.96895 -2.19746 -0.800107
2.9793 -2.18664 -0.800527
2.98965 -2.17578 -0.800957
3.00004 -2.165 -0.801396
3.01043 -2.1541 -0.801846
3.02078 -2.1432 -0.802305
3.03113 -2.13227 -0.802775
3.04156 -2.12141 -0.803254
3.05184 -2.11043 -0.803744
3.06223 -2.09945 -0.804243
3.07262 -2.08844 -0.804753
3.08273 -2.07723 -0.805211
3.0927 -2.0659 -0.805637
3.10262 -2.05453 -0.806072
3.11262 -2.0432 -0.806517
3.12258 -2.03184 -0.806973
3.1325 -2.02039 -0.807438
3.14246 -2.00898 -0.807913
3.15234 -1.99758 -0.808398
3.16234 -1.98609 -0.808894
3.17223 -1.97461 -0.809399
3.18219 -1.96305 -0.809914
3.19211 -1.95148 -0.81044
3.2073 -1.94313 -0.8123
3.23496 -1.94223 -0.817335
3.26379 -1.94164 -0.822626
3.29289 -1.94109 -0.827996
3.32238 -1.94055 -0.833448
3.35629 -1.94227 -0.839971
3.39707 -1.94766 -0.84822
3.45281 -1.96121 -0.860161
3.51016 -1.97523 -0.872453
3.56187 -1.98555 -0.883337
3.61441 -1.99578 -0.894365
3.66828 -2.00633 -0.90568
3.74445 -2.02844 -0.922468
2.72664 6.18766 -1.4647
2.68141 6.15188 -1.45367
2.63684 6.11672 -1.44283
2.60641 6.11355 -1.43961
2.58801 6.13875 -1.44307
2.56953 6.16398 -1.44657
2.55098 6.18937 -1.45012
2.5527 6.265 -1.46541
2.51355 6.24059 -1.45732
2.49477 6.26633 -1.46099
2.47578 6.29227 -1.4647
2.45672 6.31828 -1.46845
2.43762 6.34445 -1.47224
2.41832 6.37078 -1.47608
2.39902 6.39723 -1.47996
2.37961 6.42379 -1.48389
2.37785 6.49926 -1.4991
2.34059 6.47797 -1.492
2.32063 6.50437 -1.49594
2.3007 6.53156 -1.50004
2.28078 6.55891 -1.5042
2.28395 6.65406 -1.5239
2.25375 6.6532 -1.52161
2.22934 6.66914 -1.5232
2.20492 6.68519 -1.52483
2.18031 6.70125 -1.52649
2.15574 6.71742 -1.52818
2.13113 6.73363 -1.5299
1.62883 7.49246 -1.66088
1.5975 7.49344 -1.65966
1.57305 7.52695 -1.66566
1.5484 7.56062 -1.67173
1.52352 7.59461 -1.67787
1.49852 7.62879 -1.68409
-2.00578 -2.99617 -0.822943
-1.85766 -2.79914 -0.766765
-1.79754 -2.73234 -0.746493
-1.75406 -2.68973 -0.732923
-1.71687 -2.65602 -0.721842
-1.68078 -2.62328 -0.711094
-1.64574 -2.59141 -0.700665
-1.63277 -2.59398 -0.699576
-1.62082 -2.59812 -0.69893
-1.60887 -2.60223 -0.698293
-1.59695 -2.60633 -0.697662
-1.58504 -2.61039 -0.69704
-1.5732 -2.61441 -0.696424
-1.56129 -2.61844 -0.695816
-1.54941 -2.62242 -0.695215
-1.53754 -2.62641 -0.694622
-1.52566 -2.63035 -0.694035
-1.51383 -2.63426 -0.693456
-1.50195 -2.63812 -0.692885
-1.49016 -2.64195 -0.69232
-1.47832 -2.64582 -0.691762
-1.46656 -2.64969 -0.691212
-1.45469 -2.6534 -0.690669
-1.44293 -2.65719 -0.690132
-1.43109 -2.6609 -0.689604
-1.41934 -2.66465 -0.689082
-1.40758 -2.66836 -0.688567
-1.39578 -2.67195 -0.688059
-1.38402 -2.67566 -0.687558
-1.37227 -2.67926 -0.687064
-1.36055 -2.68289 -0.686577
-1.34883 -2.68641 -0.686097
-1.33703 -2.68992 -0.685624
-1.32555 -2.69398 -0.685285
-1.31414 -2.69809 -0.684977
-1.3027 -2.70215 -0.684676
-1.29125 -2.70617 -0.68438
-1.27984 -2.71023 -0.684091
-1.26844 -2.71422 -0.683807
-1.25703 -2.71816 -0.68353
-1.24539 -2.72168 -0.683148
-1.23359 -2.72496 -0.682723
-1.22191 -2.72824 -0.682304
-1.2102 -2.73148 -0.681892
-1.19852 -2.73469 -0.681485
-1.18684 -2.73789 -0.681085
-1.17512 -2.74102 -0.680691
-1.1634 -2.74422 -0.680303
-1.15176 -2.74727 -0.679921
-1.14008 -2.75039 -0.679546
-1.12836 -2.75344 -0.679176
-1.11668 -2.75648 -0.678812
-1.105 -2.75949 -0.678455
-1.09336 -2.76246 -0.678103
-1.08168 -2.76543 -0.677758
-1.07023 -2.76887 -0.677542
-1.05891 -2.77258 -0.677391
-1.04746 -2.77617 -0.677247
-1.03609 -2.77977 -0.67711
-1.02473 -2.78344 -0.67698
-1.01336 -2.78703 -0.676857
-1.00191 -2.79059 -0.676742
-0.990586 -2.79414 -0.676633
-0.97918 -2.79766 -0.676532
-0.967812 -2.80121 -0.676437
-0.956406 -2.80477 -0.67635
-0.945 -2.8082 -0.67627
-0.934453 -2.81418 -0.676798
-0.923984 -2.82062 -0.677451
-0.913594 -2.82711 -0.678112
-0.903086 -2.83352 -0.67878
-0.892578 -2.83992 -0.679458
-0.881992 -2.84641 -0.680143
-0.871484 -2.85281 -0.680837
-0.860898 -2.85922 -0.681538
-0.850273 -2.86566 -0.682249
-0.839609 -2.87203 -0.682967
-0.828945 -2.87844 -0.683695
-0.818281 -2.88484 -0.68443
-0.8075 -2.89129 -0.685175
-0.796758 -2.8977 -0.685927
-0.785977 -2.90406 -0.686689
-0.775156 -2.91047 -0.687458
-0.764336 -2.91687 -0.688237
-0.753437 -2.92328 -0.689024
-0.742578 -2.92969 -0.689821
-0.731602 -2.93605 -0.690626
-0.720664 -2.94242 -0.691439
-0.709648 -2.94883 -0.692262
-0.698633 -2.95516 -0.693093
-0.687617 -2.96156 -0.693933
-0.676484 -2.96797 -0.694783
-0.665352 -2.97398 -0.695568
-0.654258 -2.98062 -0.696499
-0.643164 -2.98738 -0.697474
-0.632031 -2.99418 -0.698458
-0.620859 -3.00094 -0.699452
-0.609727 -3.00773 -0.700454
-0.598437 -3.01445 -0.701466
-0.587187 -3.02125 -0.702487
-0.575898 -3.02805 -0.703517
-0.564492 -3.0348 -0.704556
-0.553125 -3.04164 -0.705605
-0.541758 -3.0484 -0.706663
-0.530312 -3.05508 -0.707731
-0.51875 -3.06184 -0.708808
-0.507227 -3.06859 -0.709895
-0.495625 -3.07539 -0.710992
-0.484023 -3.08211 -0.712098
-0.472422 -3.08891 -0.713214
-0.460703 -3.0957 -0.71434
-0.448984 -3.10242 -0.715476
-0.437148 -3.10914 -0.716622
-0.425352 -3.1159 -0.717777
-0.413477 -3.12266 -0.718943
-0.401602 -3.12937 -0.720119
-0.389648 -3.13613 -0.721305
-0.377695 -3.14289 -0.722501
-0.365664 -3.14961 -0.723708
-0.353594 -3.15637 -0.724925
-0.341445 -3.16313 -0.726152
-0.329297 -3.16984 -0.72739
-0.317109 -3.17656 -0.728638
1.38789 -5.25348 -1.24021
1.38711 -5.16641 -1.22095
1.38645 -5.08227 -1.20239
1.39098 -5.01926 -1.18879
1.39676 -4.96254 -1.17668
1.4057 -4.91859 -1.16758
1.41551 -4.87836 -1.15938
1.42637 -4.84312 -1.15235
1.43586 -4.80375 -1.14436
1.44945 -4.77945 -1.13994
1.46297 -4.75516 -1.13553
1.47629 -4.73066 -1.1311
1.48957 -4.70641 -1.12672
1.5027 -4.68227 -1.12239
1.51566 -4.6584 -1.11811
1.5284 -4.63414 -1.11375
1.54102 -4.61008 -1.10945
1.55355 -4.58617 -1.10519
1.5659 -4.56219 -1.10092
1.57805 -4.53809 -1.09663
1.59016 -4.51418 -1.09238
1.60211 -4.49047 -1.08819
1.61391 -4.46672 -1.08401
1.62551 -4.44297 -1.07981
1.63703 -4.4193 -1.07565
1.64965 -4.39891 -1.0723
1.66375 -4.38297 -1.07003
1.67645 -4.36344 -1.06689
1.68902 -4.34391 -1.06379
1.70234 -4.3266 -1.06121
1.71574 -4.30961 -1.05873
1.72906 -4.29281 -1.05628
1.74246 -4.27641 -1.05397
1.75641 -4.26148 -1.05203
1.77027 -4.24664 -1.05011
1.78414 -4.2318 -1.04822
1.7948 -4.20984 -1.04455
1.80461 -4.18613 -1.04045
1.8143 -4.16254 -1.03639
1.82391 -4.13914 -1.03239
1.83352 -4.11594 -1.02843
1.84305 -4.09289 -1.02452
1.85242 -4.07004 -1.02065
1.86176 -4.04734 -1.01683
1.87105 -4.02484 -1.01305
1.88105 -4.00414 -1.00974
1.89176 -3.98523 -1.00688
1.90242 -3.96641 -1.00405
1.91301 -3.94781 -1.00128
1.92371 -3.92945 -0.99858
1.93426 -3.91121 -0.995909
1.94484 -3.89305 -0.993267
1.95527 -3.875 -0.990653
1.96566 -3.85695 -0.988068
1.97605 -3.83906 -0.98551
1.98637 -3.82129 -0.98298
1.99664 -3.80352 -0.980478
2.00684 -3.78594 -0.978003
2.01695 -3.76836 -0.975554
2.02703 -3.75086 -0.973132
2.03707 -3.73352 -0.970736
2.04707 -3.71617 -0.968362
2.05699 -3.69891 -0.96601
2.06684 -3.68172 -0.963684
2.0766 -3.66465 -0.961384
2.08641 -3.64762 -0.959108
2.09609 -3.63063 -0.956857
2.10578 -3.61375 -0.954631
2.11543 -3.59695 -0.952429
2.125 -3.58023 -0.950251
2.13457 -3.56363 -0.94812
2.14414 -3.54719 -0.946022
2.15363 -3.5307 -0.943948
2.16309 -3.51437 -0.941896
2.17246 -3.49812 -0.939868
2.18187 -3.48187 -0.937861
2.19117 -3.4657 -0.935878
2.20051 -3.44969 -0.933916
2.2098 -3.43367 -0.931976
2.21898 -3.41766 -0.930058
2.22812 -3.4018 -0.928161
2.23719 -3.38582 -0.92625
2.24617 -3.36984 -0.924357
2.25512 -3.35406 -0.922485
2.26402 -3.33824 -0.920634
2.27289 -3.3225 -0.918805
2.28176 -3.3068 -0.916996
2.29055 -3.29117 -0.915208
2.29934 -3.27562 -0.91344
2.30805 -3.26008 -0.911693
2.31676 -3.24461 -0.909967
2.32539 -3.22922 -0.90826
2.33398 -3.21383 -0.906572
2.34262 -3.19859 -0.904905
2.35113 -3.18328 -0.903257
2.35965 -3.16805 -0.901629
2.36812 -3.15297 -0.90002
2.3766 -3.13789 -0.89843
2.38516 -3.12305 -0.896924
2.39383 -3.1084 -0.895469
2.40246 -3.09375 -0.894031
2.41098 -3.07918 -0.892611
2.41957 -3.06461 -0.89121
2.42809 -3.05012 -0.889825
2.43656 -3.0357 -0.888459
2.44488 -3.02109 -0.887052
2.45293 -3.00617 -0.88556
2.46082 -2.99125 -0.884086
2.46875 -2.97645 -0.882631
2.47668 -2.96164 -0.881194
2.48461 -2.94695 -0.879775
2.49246 -2.93227 -0.878374
2.50027 -2.91758 -0.87699
2.50805 -2.90301 -0.875624
2.51578 -2.88844 -0.874276
2.52355 -2.87395 -0.872946
2.53125 -2.85945 -0.871632
2.53895 -2.845 -0.870336
2.5466 -2.83062 -0.869056
2.5543 -2.81625 -0.867793
2.56191 -2.80195 -0.866548
2.56949 -2.78766 -0.865318
2.57707 -2.77344 -0.864106
2.58461 -2.75918 -0.86291
2.59211 -2.74508 -0.861731
2.59961 -2.7309 -0.860568
2.60707 -2.7168 -0.85942
2.61453 -2.70273 -0.85829
2.62199 -2.68875 -0.857175
2.62941 -2.67473 -0.856076
2.63676 -2.66074 -0.854993
2.64414 -2.6468 -0.853925
2.65148 -2.63293 -0.852873
2.65883 -2.61906 -0.851837
2.66469 -2.60383 -0.850351
2.67012 -2.58816 -0.848755
2.67551 -2.5727 -0.847178
2.68309 -2.55922 -0.84631
2.69129 -2.54648 -0.845658
2.69941 -2.53375 -0.845019
2.70762 -2.52102 -0.844393
2.7157 -2.50828 -0.843779
2.72387 -2.49555 -0.843179
2.73199 -2.48289 -0.842592
2.74008 -2.47016 -0.842018
2.74812 -2.4575 -0.841457
2.75621 -2.44484 -0.840908
2.76422 -2.43211 -0.840373
2.77227 -2.41953 -0.83985
2.78031 -2.40695 -0.839339
2.78824 -2.3943 -0.838842
2.79629 -2.38168 -0.838357
2.80426 -2.3691 -0.837884
2.81223 -2.35652 -0.837425
2.81875 -2.34281 -0.836569
2.825 -2.32891 -0.835652
2.83137 -2.315 -0.834747
2.83758 -2.30117 -0.833857
2.84406 -2.2875 -0.833043
2.85281 -2.2757 -0.832925
2.86152 -2.26391 -0.832817
2.87027 -2.25215 -0.832721
2.87902 -2.24035 -0.832636
2.88777 -2.22859 -0.832562
2.89652 -2.2168 -0.8325
2.90516 -2.205 -0.832449
2.91387 -2.1932 -0.83241
2.92254 -2.18141 -0.832382
2.93125 -2.16953 -0.832364
2.93992 -2.15777 -0.832359
2.94863 -2.1459 -0.832365
2.95727 -2.1341 -0.832382
2.96676 -2.12289 -0.832642
2.97695 -2.11211 -0.833113
2.98711 -2.10133 -0.833593
2.99734 -2.09059 -0.834083
3.0075 -2.07969 -0.834584
3.01766 -2.06891 -0.835096
3.02785 -2.05801 -0.835617
3.03777 -2.04695 -0.836065
3.04758 -2.03578 -0.8365
3.05734 -2.02453 -0.836946
3.06707 -2.01336 -0.837401
3.07738 -2.00242 -0.838006
3.09012 -1.99312 -0.839283
3.10289 -1.98367 -0.840576
3.1157 -1.9743 -0.841884
3.12848 -1.9648 -0.843209
3.14133 -1.95539 -0.84455
3.15426 -1.94586 -0.845908
3.16715 -1.93625 -0.847281
3.18516 -1.92977 -0.850021
3.20617 -1.92484 -0.853548
3.22734 -1.92 -0.857118
3.25449 -1.91844 -0.862271
3.28344 -1.91777 -0.867882
3.31273 -1.91703 -0.873578
3.34871 -1.92 -0.881039
3.3877 -1.9243 -0.88926
3.42848 -1.92922 -0.897912
3.48301 -1.94156 -0.910147
3.53344 -1.95102 -0.921254
3.60656 -1.97254 -0.938242
3.69262 -2.00039 -0.95854
3.88582 -2.08492 -1.0065
2.66562 6.18336 -1.53688
2.61531 6.13441 -1.52207
2.58805 6.13875 -1.52056
2.56953 6.16402 -1.52425
2.55098 6.18945 -1.52798
2.53227 6.21492 -1.53175
2.51355 6.24062 -1.53557
2.55078 6.40711 -1.57401
2.52871 6.42664 -1.57631
2.49785 6.42398 -1.57317
2.46707 6.42125 -1.57006
2.43645 6.41844 -1.56696
2.4059 6.41555 -1.56389
2.37957 6.42383 -1.56356
2.36008 6.45055 -1.56775
2.34039 6.4775 -1.57198
2.32063 6.50445 -1.57626
2.30078 6.5316 -1.58059
-2.13555 -3.13516 -0.910161
-1.89758 -2.81 -0.813534
-1.8057 -2.6973 -0.778806
-1.76742 -2.6632 -0.766894
-1.73027 -2.63008 -0.755345
-1.69414 -2.59789 -0.744142
-1.65914 -2.56664 -0.733269
-1.62504 -2.53625 -0.722713
-1.60805 -2.53203 -0.719679
-1.59641 -2.53621 -0.719023
-1.58477 -2.54031 -0.718375
-1.57313 -2.54437 -0.717734
-1.56148 -2.54844 -0.717101
-1.54988 -2.55242 -0.716475
-1.53828 -2.55641 -0.715856
-1.52668 -2.56047 -0.715245
-1.51512 -2.56437 -0.714641
-1.50355 -2.56828 -0.714044
-1.49195 -2.57219 -0.713455
-1.48039 -2.57609 -0.712873
-1.46887 -2.57992 -0.712298
-1.45734 -2.58375 -0.71173
-1.44578 -2.58754 -0.71117
-1.43426 -2.59137 -0.710617
-1.42273 -2.59508 -0.71007
-1.41121 -2.59883 -0.709538
-1.39973 -2.60258 -0.709025
-1.38828 -2.60629 -0.708518
-1.37684 -2.61004 -0.70802
-1.36535 -2.61375 -0.707528
-1.35395 -2.61742 -0.707044
-1.34246 -2.62109 -0.706566
-1.33105 -2.62469 -0.706096
-1.31961 -2.62828 -0.705634
-1.3082 -2.63191 -0.705178
-1.2968 -2.63547 -0.70473
-1.28535 -2.63898 -0.704288
-1.27402 -2.6425 -0.703854
-1.26258 -2.64602 -0.70343
-1.25117 -2.64953 -0.703026
-1.23988 -2.65305 -0.702628
-1.22852 -2.65664 -0.702265
-1.2177 -2.66125 -0.702194
-1.20687 -2.6659 -0.702129
-1.19605 -2.67055 -0.702071
-1.185 -2.67457 -0.701876
-1.17383 -2.67836 -0.701636
-1.1627 -2.68219 -0.701403
-1.15148 -2.68598 -0.701177
-1.14039 -2.68977 -0.700959
-1.12914 -2.69348 -0.700748
-1.11801 -2.69723 -0.700544
-1.10684 -2.70094 -0.700347
-1.0957 -2.70469 -0.700158
-1.08453 -2.70832 -0.699976
-1.07336 -2.71199 -0.699801
-1.06219 -2.71563 -0.699634
-1.05102 -2.71922 -0.699473
-1.03988 -2.72289 -0.69932
-1.02871 -2.72641 -0.699174
-1.01754 -2.73 -0.699035
-1.00637 -2.73359 -0.698904
-0.995156 -2.73711 -0.69878
-0.984023 -2.74062 -0.698662
-0.972852 -2.7441 -0.698552
-0.961641 -2.74766 -0.698449
-0.950469 -2.75109 -0.698354
-0.939297 -2.75453 -0.698265
-0.928086 -2.75797 -0.698184
-0.917031 -2.76172 -0.698194
-0.906719 -2.76797 -0.698855
-0.896445 -2.77426 -0.699523
-0.886211 -2.78051 -0.700201
-0.875898 -2.7868 -0.700886
-0.865469 -2.79305 -0.70158
-0.855117 -2.7993 -0.702282
-0.844727 -2.80555 -0.702992
-0.834297 -2.8118 -0.703711
-0.823789 -2.81805 -0.704439
-0.81332 -2.8243 -0.705174
-0.802812 -2.83047 -0.705919
-0.792266 -2.83676 -0.706672
-0.781758 -2.84297 -0.707434
-0.771133 -2.84918 -0.708204
-0.760508 -2.85539 -0.708983
-0.749844 -2.86164 -0.709771
-0.739219 -2.86781 -0.710568
-0.728477 -2.87406 -0.711373
-0.717695 -2.8802 -0.712187
-0.706719 -2.88539 -0.712756
-0.695625 -2.89047 -0.713317
-0.68457 -2.89555 -0.713885
-0.673437 -2.90059 -0.714461
-0.662305 -2.9057 -0.715044
-0.651172 -2.9107 -0.715635
-0.64 -2.91574 -0.716233
-0.628906 -2.92133 -0.716986
-0.618047 -2.92789 -0.717967
-0.607109 -2.93438 -0.718958
-0.596133 -2.94086 -0.719958
-0.585117 -2.94738 -0.720968
-0.574102 -2.95391 -0.721986
-0.563008 -2.96035 -0.723014
-0.551914 -2.96687 -0.724051
-0.540742 -2.97332 -0.725097
-0.52957 -2.9798 -0.726153
-0.51832 -2.98633 -0.727219
-0.507109 -2.99281 -0.728301
-0.495742 -2.9993 -0.729393
-0.484453 -3.00582 -0.730494
-0.473086 -3.01227 -0.731605
-0.461641 -3.01879 -0.732726
-0.450234 -3.02531 -0.733856
-0.43875 -3.0318 -0.734996
-0.427188 -3.03828 -0.736146
-0.415664 -3.04477 -0.737306
-0.404062 -3.05125 -0.738477
-0.392383 -3.05766 -0.739657
-0.380703 -3.06422 -0.740847
-0.369023 -3.0707 -0.742047
-0.357227 -3.07711 -0.743258
-0.34543 -3.08359 -0.744479
-0.333555 -3.09004 -0.74571
-0.321719 -3.09652 -0.746952
-0.309766 -3.10297 -0.748205
-0.297773 -3.10945 -0.749468
-0.285781 -3.11594 -0.750741
1.37457 -5.2032 -1.29125
1.37516 -5.12187 -1.27242
1.37711 -5.04789 -1.25542
1.38207 -4.98719 -1.24169
1.39117 -4.94289 -1.23203
1.40023 -4.89922 -1.22254
1.41539 -4.87805 -1.21868
1.42254 -4.83008 -1.20811
1.43637 -4.80555 -1.20341
1.45004 -4.78125 -1.19876
1.46359 -4.75703 -1.19417
1.47707 -4.73305 -1.18963
1.49039 -4.70902 -1.18508
1.50352 -4.68492 -1.18053
1.51652 -4.66102 -1.17603
1.52941 -4.63723 -1.17157
1.54203 -4.61309 -1.16703
1.55457 -4.58918 -1.16255
1.56695 -4.56523 -1.15807
1.5791 -4.54109 -1.15355
1.59121 -4.51719 -1.14909
1.60312 -4.49336 -1.14465
1.6148 -4.4693 -1.14017
1.62645 -4.44539 -1.13574
1.63793 -4.42172 -1.13137
1.64937 -4.39824 -1.12704
1.66074 -4.37492 -1.12277
1.67191 -4.35156 -1.11849
1.68754 -4.3402 -1.1173
1.70023 -4.32137 -1.1142
1.71367 -4.30441 -1.1116
1.72695 -4.28762 -1.10904
1.74016 -4.27078 -1.1065
1.75336 -4.25406 -1.10399
1.76648 -4.2375 -1.10151
1.77891 -4.21961 -1.0987
1.78879 -4.19578 -1.09437
1.79859 -4.17211 -1.09009
1.80828 -4.14875 -1.08586
1.81797 -4.12547 -1.08167
1.82746 -4.10242 -1.07754
1.83695 -4.07949 -1.07345
1.84637 -4.05672 -1.06941
1.8557 -4.03414 -1.06542
1.86492 -4.0118 -1.06147
1.87418 -3.98953 -1.05757
1.88328 -3.96742 -1.05371
1.89352 -3.94781 -1.05053
1.90422 -3.92957 -1.04769
1.91484 -3.91137 -1.04488
1.92539 -3.8932 -1.0421
1.9359 -3.87516 -1.03934
1.94633 -3.85719 -1.03662
1.95676 -3.83934 -1.03393
1.96707 -3.82164 -1.03126
1.97738 -3.80391 -1.02863
1.98758 -3.78637 -1.02602
1.99773 -3.76883 -1.02344
2.00785 -3.75141 -1.02089
2.01793 -3.73406 -1.01837
2.02793 -3.71672 -1.01587
2.03789 -3.69953 -1.0134
2.04781 -3.68242 -1.01096
2.05766 -3.66539 -1.00855
2.06742 -3.64844 -1.00615
2.07723 -3.63148 -1.00378
2.08691 -3.61469 -1.00144
2.09656 -3.59789 -0.999116
2.10613 -3.58117 -0.996822
2.11574 -3.56465 -0.994569
2.12527 -3.54813 -0.992358
2.13484 -3.5318 -0.990171
2.14434 -3.51547 -0.98801
2.15375 -3.49926 -0.985872
2.16316 -3.48305 -0.983757
2.17258 -3.46695 -0.981666
2.18184 -3.45094 -0.979599
2.19113 -3.43496 -0.977554
2.20039 -3.41902 -0.975533
2.20953 -3.4032 -0.973534
2.21867 -3.38738 -0.971557
2.22781 -3.3716 -0.969603
2.23688 -3.35594 -0.967671
2.2459 -3.34031 -0.96576
2.25484 -3.32469 -0.963855
2.26371 -3.30902 -0.961947
2.27254 -3.29344 -0.960061
2.28133 -3.27789 -0.958196
2.29008 -3.26242 -0.956354
2.29875 -3.24699 -0.954532
2.30746 -3.23156 -0.952731
2.31609 -3.21625 -0.95095
2.32465 -3.20102 -0.949191
2.33324 -3.18578 -0.947452
2.34176 -3.17062 -0.945735
2.35027 -3.15555 -0.944036
2.35875 -3.14047 -0.942358
2.3673 -3.12562 -0.940757
2.37598 -3.11094 -0.93922
2.38461 -3.09641 -0.937701
2.3932 -3.08187 -0.936202
2.4018 -3.06734 -0.934721
2.41027 -3.05289 -0.933259
2.41883 -3.03844 -0.931815
2.42727 -3.02406 -0.930389
2.43574 -3.00969 -0.928982
2.4441 -2.99539 -0.927593
2.45254 -2.98117 -0.926221
2.46094 -2.96695 -0.924868
2.4691 -2.95258 -0.923471
2.47691 -2.93789 -0.921988
2.4848 -2.92328 -0.920525
2.49258 -2.90867 -0.919079
2.50039 -2.89414 -0.917652
2.50809 -2.87961 -0.916244
2.51586 -2.86516 -0.914853
2.52359 -2.85078 -0.91348
2.53125 -2.83637 -0.912126
2.53887 -2.82203 -0.910789
2.54652 -2.80773 -0.90947
2.55414 -2.79344 -0.908169
2.56168 -2.77922 -0.906884
2.56926 -2.76508 -0.905617
2.5768 -2.7509 -0.904368
2.5843 -2.7368 -0.903135
2.5918 -2.72273 -0.90192
2.5993 -2.70863 -0.900721
2.60672 -2.69469 -0.89954
2.61414 -2.6807 -0.898375
2.62156 -2.66672 -0.897226
2.62887 -2.65281 -0.896095
2.63629 -2.63895 -0.894979
2.64363 -2.62508 -0.89388
2.65031 -2.61066 -0.892587
2.65578 -2.59508 -0.890901
2.66117 -2.57953 -0.889235
2.66656 -2.5641 -0.887588
2.67199 -2.54867 -0.885961
2.6773 -2.53328 -0.884353
2.68426 -2.51945 -0.883289
2.69234 -2.5068 -0.882639
2.70043 -2.49418 -0.882002
2.70855 -2.48156 -0.881378
2.71664 -2.46891 -0.880768
2.72465 -2.45629 -0.880171
2.7327 -2.44375 -0.879587
2.74074 -2.43109 -0.879017
2.74875 -2.41855 -0.878461
2.75676 -2.40598 -0.877917
2.76473 -2.39344 -0.877386
2.7727 -2.3809 -0.876869
2.77949 -2.36742 -0.875996
2.78582 -2.35352 -0.875003
2.79207 -2.33969 -0.874023
2.7984 -2.32586 -0.873059
2.80465 -2.31203 -0.872108
2.81094 -2.29836 -0.871171
2.81711 -2.28453 -0.870248
2.82336 -2.27086 -0.869339
2.82973 -2.2573 -0.868508
2.83848 -2.24563 -0.868397
2.84711 -2.23391 -0.868298
2.85578 -2.22223 -0.86821
2.86445 -2.21059 -0.868133
2.87312 -2.19887 -0.868069
2.88168 -2.18719 -0.868016
2.89039 -2.17547 -0.867975
2.89898 -2.16375 -0.867946
2.90762 -2.15207 -0.867929
2.91621 -2.14035 -0.867923
2.9248 -2.12859 -0.867928
2.93336 -2.11687 -0.867946
2.94195 -2.10516 -0.867976
2.95156 -2.09414 -0.868321
2.96121 -2.08312 -0.86869
2.97094 -2.07211 -0.869072
2.98055 -2.06109 -0.869467
2.9902 -2.05008 -0.869876
2.99992 -2.03902 -0.870298
3.01078 -2.02875 -0.871086
3.02176 -2.01852 -0.871892
3.03309 -2.00852 -0.872836
3.04562 -1.99926 -0.87413
3.05824 -1.99 -0.875439
3.07086 -1.9807 -0.876765
3.08348 -1.97133 -0.878107
3.09617 -1.96195 -0.879466
3.10891 -1.95254 -0.880841
3.12164 -1.94313 -0.882233
3.13445 -1.93359 -0.883642
3.14742 -1.92422 -0.885107
3.16805 -1.91937 -0.888733
3.18887 -1.91445 -0.892401
3.20977 -1.90953 -0.896113
3.23098 -1.90453 -0.899869
3.25227 -1.89957 -0.903669
3.27379 -1.89457 -0.907533
3.30301 -1.89375 -0.913504
3.34102 -1.89777 -0.921909
3.38137 -1.90273 -0.930921
3.43242 -1.91332 -0.942842
3.50434 -1.935 -0.960481
3.58652 -1.96156 -0.980814
3.67055 -1.9884 -1.0016
3.83449 -2.05727 -1.04406
2.65941 6.30813 -1.64253
2.57746 6.18297 -1.60723
2.55098 6.18945 -1.60624
2.53234 6.21496 -1.61021
2.51359 6.24062 -1.61422
2.49477 6.26641 -1.61828
2.47578 6.29234 -1.62239
2.45676 6.31832 -1.62654
2.43762 6.34449 -1.63075
2.41836 6.37086 -1.635
2.39902 6.3973 -1.6393
2.37965 6.42383 -1.64365
2.36008 6.45062 -1.64804
-2.08809 -3.0391 -0.928028
-1.83297 -2.69102 -0.819469
-1.78875 -2.64883 -0.804438
-1.74801 -2.61109 -0.790833
-1.71152 -2.57898 -0.779021
-1.67613 -2.54781 -0.767563
-1.6418 -2.5175 -0.75644
-1.61012 -2.49078 -0.74646
-1.58547 -2.47445 -0.739644
-1.5741 -2.47863 -0.738992
-1.56277 -2.48273 -0.738346
-1.55145 -2.48688 -0.737709
-1.54012 -2.49094 -0.737079
-1.52879 -2.495 -0.736457
-1.51746 -2.49906 -0.735843
-1.50617 -2.50312 -0.735236
-1.49484 -2.50707 -0.734637
-1.48359 -2.51102 -0.734046
-1.4723 -2.51492 -0.733462
-1.46105 -2.51891 -0.732885
-1.44977 -2.52281 -0.732317
-1.43855 -2.52664 -0.731755
-1.42727 -2.53047 -0.731201
-1.41605 -2.53434 -0.730655
-1.40477 -2.53809 -0.730116
-1.39355 -2.54187 -0.729584
-1.38238 -2.54562 -0.72906
-1.37113 -2.54938 -0.728544
-1.35988 -2.55309 -0.728034
-1.34867 -2.55676 -0.727532
-1.33754 -2.56039 -0.727037
-1.32633 -2.56406 -0.726552
-1.31516 -2.56773 -0.726087
-1.30398 -2.57141 -0.72563
-1.29285 -2.57496 -0.72518
-1.28172 -2.57863 -0.724737
-1.27059 -2.58215 -0.724301
-1.25941 -2.58574 -0.723872
-1.24828 -2.5893 -0.723451
-1.23719 -2.59281 -0.723037
-1.22605 -2.59625 -0.722629
-1.21492 -2.59977 -0.722229
-1.20387 -2.6032 -0.721836
-1.19316 -2.60773 -0.721759
-1.18262 -2.61227 -0.721694
-1.17199 -2.6168 -0.721635
-1.16137 -2.62125 -0.721583
-1.15074 -2.62578 -0.721538
-1.14016 -2.63023 -0.721499
-1.12953 -2.63469 -0.721467
-1.11887 -2.63906 -0.721442
-1.10824 -2.64352 -0.721423
-1.09754 -2.64789 -0.721411
-1.08687 -2.65227 -0.721405
-1.07621 -2.65656 -0.721406
-1.06535 -2.66031 -0.721253
-1.05437 -2.66398 -0.721075
-1.0434 -2.6675 -0.720906
-1.03242 -2.67109 -0.720744
-1.02148 -2.67469 -0.720589
-1.01047 -2.6782 -0.720441
-0.999531 -2.68176 -0.7203
-0.988516 -2.68523 -0.720167
-0.977578 -2.68871 -0.720041
-0.966641 -2.69219 -0.719923
-0.955625 -2.69562 -0.719811
-0.944648 -2.69906 -0.719707
-0.933672 -2.70246 -0.71961
-0.922695 -2.70582 -0.719521
-0.91168 -2.70926 -0.719439
-0.900703 -2.71258 -0.719363
-0.890078 -2.71699 -0.719582
-0.879961 -2.72312 -0.720258
-0.869844 -2.72922 -0.720942
-0.859688 -2.73531 -0.721635
-0.849492 -2.74145 -0.722336
-0.839297 -2.7475 -0.723046
-0.829062 -2.75359 -0.723764
-0.818789 -2.75969 -0.72449
-0.808516 -2.7657 -0.725225
-0.798242 -2.77187 -0.725969
-0.787891 -2.77789 -0.726721
-0.777539 -2.78391 -0.727482
-0.767187 -2.79 -0.728251
-0.756562 -2.79531 -0.728842
-0.74582 -2.80035 -0.729362
-0.735078 -2.80535 -0.729889
-0.724375 -2.81031 -0.730424
-0.713555 -2.81531 -0.730966
-0.702773 -2.82023 -0.731515
-0.691953 -2.82523 -0.732072
-0.681094 -2.83016 -0.732636
-0.670273 -2.83504 -0.733207
-0.659375 -2.84 -0.733786
-0.648438 -2.84492 -0.734372
-0.637539 -2.84977 -0.734967
-0.626602 -2.85461 -0.735568
-0.615625 -2.85953 -0.736177
-0.604648 -2.86437 -0.736793
-0.593906 -2.87047 -0.737742
-0.583125 -2.87672 -0.738746
-0.572344 -2.88301 -0.739759
-0.561484 -2.88926 -0.740781
-0.550664 -2.89555 -0.741813
-0.539766 -2.9018 -0.742853
-0.528828 -2.90797 -0.743903
-0.517891 -2.91426 -0.744962
-0.506875 -2.92047 -0.74603
-0.495859 -2.92676 -0.747108
-0.484805 -2.93297 -0.748196
-0.47375 -2.93922 -0.749293
-0.462578 -2.94539 -0.7504
-0.451367 -2.95164 -0.751516
-0.440195 -2.95785 -0.752643
-0.428945 -2.96406 -0.753778
-0.417617 -2.97031 -0.754924
-0.406328 -2.97652 -0.75608
-0.395 -2.9827 -0.757245
-0.383594 -2.98891 -0.758421
-0.372148 -2.99508 -0.75961
-0.360625 -3.00133 -0.760813
-0.349141 -3.0075 -0.762026
-0.337578 -3.01375 -0.76325
-0.326016 -3.01992 -0.764483
-0.314375 -3.02617 -0.765727
-0.302695 -3.03238 -0.766982
-0.290977 -3.03852 -0.768247
-0.279258 -3.04469 -0.769523
-0.267461 -3.05094 -0.770809
-0.258047 -3.08594 -0.779384
1.36875 -5.18102 -1.34871
1.36547 -5.08566 -1.32531
1.36777 -5.01383 -1.30801
1.37656 -4.96727 -1.2973
1.38793 -4.93141 -1.28937
1.3993 -4.89594 -1.28156
1.40891 -4.85566 -1.27249
1.42285 -4.83125 -1.26758
1.43676 -4.80699 -1.26273
1.45059 -4.78297 -1.25793
1.46414 -4.75883 -1.25312
1.47766 -4.7348 -1.24836
1.49102 -4.71102 -1.24365
1.5043 -4.68734 -1.239
1.51738 -4.66367 -1.23432
1.53027 -4.63988 -1.22965
1.54312 -4.61617 -1.225
1.55562 -4.59223 -1.2203
1.56801 -4.56828 -1.2156
1.58016 -4.54414 -1.21086
1.59223 -4.52016 -1.20616
1.60402 -4.49586 -1.2014
1.6157 -4.4718 -1.19669
1.62734 -4.44797 -1.19204
1.63883 -4.42422 -1.18743
1.65016 -4.40031 -1.18281
1.66133 -4.37672 -1.17823
1.67254 -4.3532 -1.17371
1.68355 -4.32988 -1.16925
1.7 -4.32062 -1.16858
1.71156 -4.29922 -1.16463
1.72473 -4.28207 -1.16186
1.73773 -4.26492 -1.1591
1.75078 -4.24785 -1.15636
1.76371 -4.23094 -1.15366
1.77453 -4.20922 -1.14968
1.78512 -4.18711 -1.1456
1.79488 -4.16355 -1.14113
1.80457 -4.14023 -1.13671
1.81418 -4.11703 -1.13233
1.82375 -4.09406 -1.12801
1.83324 -4.07121 -1.12374
1.84266 -4.04852 -1.11952
1.85203 -4.02602 -1.11535
1.86121 -4.00375 -1.11123
1.87043 -3.98156 -1.10715
1.88059 -3.96172 -1.10372
1.89082 -3.94219 -1.1004
1.90094 -3.92277 -1.09711
1.91102 -3.90355 -1.09386
1.92113 -3.88461 -1.09071
1.93117 -3.86574 -1.08759
1.94117 -3.84703 -1.08451
1.95117 -3.8284 -1.08146
1.96102 -3.80988 -1.07845
1.97082 -3.79145 -1.07547
1.98066 -3.77312 -1.07252
1.99039 -3.75488 -1.06961
2.00004 -3.7368 -1.06673
2.00969 -3.71875 -1.06388
2.01922 -3.70082 -1.06106
2.02879 -3.68305 -1.05828
2.03871 -3.66602 -1.05574
2.04852 -3.64906 -1.05323
2.05824 -3.63219 -1.05074
2.06801 -3.61543 -1.04829
2.07766 -3.59875 -1.04586
2.08734 -3.58211 -1.04345
2.09691 -3.56555 -1.04107
2.10648 -3.5491 -1.03875
2.11609 -3.53281 -1.03645
2.12562 -3.51648 -1.03417
2.13508 -3.50035 -1.03193
2.14453 -3.48422 -1.0297
2.15383 -3.46812 -1.0275
2.1632 -3.45211 -1.02533
2.1725 -3.43617 -1.02318
2.18176 -3.42023 -1.02105
2.19098 -3.40445 -1.01895
2.20016 -3.38867 -1.01687
2.20922 -3.37297 -1.01481
