ply
format ascii 1.0
comment Created by Open3D
element vertex 1652
property float x
property float y
property float z
end_header
-0.405664 -0.319629 -0.283105
-0.407988 -0.324131 -0.285633
-0.410283 -0.328652 -0.28816
-0.412539 -0.333184 -0.290683
-0.414756 -0.337744 -0.293202
-0.416934 -0.342314 -0.295715
-0.419072 -0.346904 -0.298219
-0.421182 -0.351504 -0.300717
-0.423232 -0.356113 -0.303203
-0.425244 -0.360723 -0.305678
-0.427197 -0.365361 -0.308138
-0.429102 -0.36998 -0.310583
-0.430947 -0.374609 -0.313007
-0.432744 -0.379229 -0.315417
-0.368301 -0.325391 -0.269396
-0.367305 -0.327129 -0.269623
-0.366289 -0.328887 -0.269849
-0.365264 -0.330635 -0.270073
-0.364238 -0.332363 -0.270297
-0.363203 -0.334102 -0.270518
-0.362139 -0.33584 -0.270739
-0.361074 -0.337568 -0.270958
-0.36001 -0.339277 -0.271176
-0.358926 -0.341006 -0.271393
-0.357842 -0.342705 -0.271608
-0.356738 -0.344414 -0.271822
-0.355635 -0.346113 -0.272034
-0.354512 -0.347813 -0.272246
-0.353379 -0.349512 -0.272455
-0.352246 -0.351191 -0.272664
-0.351094 -0.352881 -0.27287
-0.349941 -0.354551 -0.273076
-0.34877 -0.356221 -0.27328
-0.347598 -0.357881 -0.273483
-0.346406 -0.359551 -0.273684
-0.345215 -0.361201 -0.273884
-0.344004 -0.362832 -0.274082
-0.342783 -0.364492 -0.274279
-0.341572 -0.366113 -0.274474
-0.340332 -0.367754 -0.274668
-0.339082 -0.369375 -0.27486
-0.337832 -0.370986 -0.27505
-0.336572 -0.372607 -0.275239
-0.335293 -0.374209 -0.275427
-0.334014 -0.375801 -0.275613
-0.332725 -0.377393 -0.275798
-0.331426 -0.378975 -0.27598
-0.330117 -0.380557 -0.27616
-0.328779 -0.382109 -0.276329
-0.327441 -0.383662 -0.276496
-0.326094 -0.385205 -0.27666
-0.324736 -0.386748 -0.276823
-0.32335 -0.388281 -0.276984
-0.321982 -0.389795 -0.277143
-0.320596 -0.391309 -0.2773
-0.319199 -0.392812 -0.277455
-0.317783 -0.394316 -0.277608
-0.316377 -0.395801 -0.277759
-0.314941 -0.397285 -0.277908
-0.313516 -0.39876 -0.278055
-0.31207 -0.400234 -0.278201
-0.310615 -0.401689 -0.278343
-0.30916 -0.403125 -0.278485
-0.307686 -0.40457 -0.278624
-0.306211 -0.405996 -0.278761
-0.304727 -0.407432 -0.278896
-0.303232 -0.408848 -0.279028
-0.301729 -0.410244 -0.279159
-0.300215 -0.41165 -0.279288
-0.298691 -0.413037 -0.279414
-0.297158 -0.414424 -0.279539
-0.295625 -0.415791 -0.279661
-0.294072 -0.417158 -0.279781
-0.29251 -0.418525 -0.2799
-0.290947 -0.419873 -0.280016
-0.289385 -0.421201 -0.280129
-0.287793 -0.422539 -0.280241
-0.286201 -0.423857 -0.280351
-0.284619 -0.425156 -0.280458
-0.283018 -0.426445 -0.280563
-0.281387 -0.427764 -0.280667
-0.279766 -0.429033 -0.280768
-0.278145 -0.430303 -0.280866
-0.276504 -0.431582 -0.280963
-0.274863 -0.432822 -0.281057
-0.273203 -0.434072 -0.281149
-0.271553 -0.435293 -0.281239
-0.269883 -0.436523 -0.281327
-0.268203 -0.437754 -0.281413
-0.266523 -0.438945 -0.281496
-0.264834 -0.440137 -0.281577
-0.263135 -0.441328 -0.281656
-0.261436 -0.44249 -0.281732
-0.259717 -0.443662 -0.281807
-0.257998 -0.444814 -0.281879
-0.25626 -0.445967 -0.281949
-0.254531 -0.4471 -0.282017
-0.252803 -0.448203 -0.282082
-0.251055 -0.449326 -0.282145
-0.249297 -0.45043 -0.282206
-0.247529 -0.451523 -0.282265
-0.245762 -0.452607 -0.282321
-0.243994 -0.453682 -0.282375
-0.242207 -0.454746 -0.282426
-0.24042 -0.455781 -0.282476
-0.238633 -0.456826 -0.282523
-0.236826 -0.457861 -0.282568
-0.23502 -0.458877 -0.28261
-0.233203 -0.459883 -0.282651
-0.231387 -0.460879 -0.282689
-0.229561 -0.461865 -0.282724
-0.227725 -0.462832 -0.282757
-0.225889 -0.463799 -0.282789
-0.224043 -0.464746 -0.282817
-0.222197 -0.465703 -0.282844
-0.220342 -0.466621 -0.282868
-0.218486 -0.467539 -0.28289
-0.216611 -0.468437 -0.282909
-0.214746 -0.469326 -0.282926
-0.212871 -0.470225 -0.282941
-0.210986 -0.471094 -0.282953
-0.209102 -0.471963 -0.282964
-0.207207 -0.472813 -0.282971
-0.205303 -0.473652 -0.282977
-0.203408 -0.474463 -0.28298
-0.201494 -0.475283 -0.282981
-0.19958 -0.476084 -0.28298
-0.197666 -0.476885 -0.282976
-0.195742 -0.477666 -0.28297
-0.193818 -0.478418 -0.282961
-0.191875 -0.479189 -0.28295
-0.189951 -0.479922 -0.282937
-0.188008 -0.480654 -0.282922
-0.186064 -0.481377 -0.282904
-0.184111 -0.48209 -0.282884
-0.182158 -0.482793 -0.282862
-0.180195 -0.483477 -0.282837
-0.178232 -0.48416 -0.28281
-0.17626 -0.484824 -0.282781
-0.174297 -0.485478 -0.282749
-0.172324 -0.486113 -0.282715
-0.170342 -0.486729 -0.282679
-0.168369 -0.487344 -0.282641
-0.166377 -0.487949 -0.2826
-0.164395 -0.488535 -0.282557
-0.162402 -0.489121 -0.282511
-0.1604 -0.489697 -0.282464
-0.158418 -0.490234 -0.282414
-0.156406 -0.490771 -0.282361
-0.154463 -0.491504 -0.282417
-0.152559 -0.492344 -0.282541
-0.150635 -0.493164 -0.282664
-0.148721 -0.493975 -0.282784
-0.146797 -0.494775 -0.282903
-0.144863 -0.495576 -0.28302
-0.14293 -0.496338 -0.283135
-0.140986 -0.497109 -0.283248
-0.139043 -0.497871 -0.28336
-0.13709 -0.498623 -0.283469
-0.135137 -0.499355 -0.283577
-0.133184 -0.500088 -0.283683
-0.131221 -0.500801 -0.283787
-0.129248 -0.501514 -0.283889
-0.127275 -0.502197 -0.28399
-0.125303 -0.502871 -0.284088
-0.12332 -0.503564 -0.284184
-0.121338 -0.504199 -0.284279
-0.119346 -0.504863 -0.284372
-0.117354 -0.505488 -0.284462
-0.115352 -0.506123 -0.284551
-0.113359 -0.506738 -0.284638
-0.111357 -0.507334 -0.284723
-0.109336 -0.507939 -0.284806
-0.107334 -0.508506 -0.284888
-0.105312 -0.509082 -0.284967
-0.103301 -0.509639 -0.285044
-0.101279 -0.510176 -0.285119
-0.0992383 -0.510723 -0.285193
-0.0972266 -0.51123 -0.285264
-0.0951758 -0.511758 -0.285334
-0.0931543 -0.512246 -0.285402
-0.0911133 -0.512734 -0.285467
-0.0890723 -0.513213 -0.285531
-0.0870215 -0.513682 -0.285592
-0.0849805 -0.514131 -0.285652
-0.0829199 -0.51457 -0.28571
-0.0808789 -0.515 -0.285766
-0.0788086 -0.51542 -0.285819
-0.0767578 -0.51583 -0.285871
-0.0746875 -0.516221 -0.28592
-0.0726367 -0.516602 -0.285968
-0.0705566 -0.516953 -0.285999
-0.0684863 -0.517217 -0.285995
-0.0664062 -0.51748 -0.285988
-0.0643262 -0.517725 -0.285981
-0.0622363 -0.517959 -0.28597
-0.0601465 -0.518193 -0.285958
-0.0580566 -0.518418 -0.285944
-0.0559766 -0.518594 -0.285928
-0.0538867 -0.518779 -0.28591
-0.0517969 -0.518975 -0.28589
-0.0497168 -0.519121 -0.285868
-0.0476172 -0.519268 -0.285844
-0.0455176 -0.519414 -0.285818
-0.0434277 -0.519561 -0.28579
-0.0413379 -0.519668 -0.28576
-0.0392383 -0.519775 -0.285729
-0.0371484 -0.519854 -0.285695
-0.0350586 -0.519941 -0.28566
-0.032959 -0.52 -0.285622
-0.0308594 -0.520078 -0.285583
-0.0287695 -0.520117 -0.285541
-0.0266699 -0.520137 -0.285498
-0.0245801 -0.520166 -0.285453
-0.0224805 -0.520166 -0.285405
-0.0203906 -0.520166 -0.285356
-0.018291 -0.520166 -0.285305
-0.0162012 -0.520137 -0.285252
-0.0141016 -0.520078 -0.285197
-0.0120117 -0.520049 -0.28514
-0.00992187 -0.519961 -0.285082
-0.00783203 -0.519893 -0.285021
-0.00574219 -0.519805 -0.284958
-0.00364258 -0.519717 -0.284894
-0.00155273 -0.519619 -0.284828
0.000527344 -0.519541 -0.284794
0.00261719 -0.519658 -0.284861
0.00470703 -0.519756 -0.284926
0.00679688 -0.519844 -0.28499
0.00889648 -0.519941 -0.285052
0.0109863 -0.52001 -0.285111
0.0130762 -0.520059 -0.285169
0.0151758 -0.520107 -0.285225
0.0172656 -0.520156 -0.285279
0.0193652 -0.520166 -0.285331
0.0214551 -0.520176 -0.285381
0.0235449 -0.520166 -0.285429
0.0256445 -0.520146 -0.285476
0.0277344 -0.520137 -0.28552
0.029834 -0.520098 -0.285562
0.0319336 -0.520059 -0.285603
0.0340234 -0.51998 -0.285641
0.036123 -0.519912 -0.285678
0.0382129 -0.519814 -0.285712
0.0403125 -0.519707 -0.285745
0.0423926 -0.519609 -0.285776
0.0444922 -0.519482 -0.285805
0.046582 -0.519355 -0.285831
0.0486719 -0.519209 -0.285856
0.0507715 -0.519062 -0.285879
0.0528516 -0.518877 -0.2859
0.0549512 -0.518701 -0.285919
0.057041 -0.518506 -0.285936
0.0591211 -0.518291 -0.285951
0.0612012 -0.518066 -0.285964
0.063291 -0.517852 -0.285976
0.0653711 -0.517598 -0.285985
0.0674609 -0.517353 -0.285992
0.0695312 -0.51708 -0.285997
0.0716211 -0.516787 -0.285992
0.0736719 -0.516416 -0.285945
0.0757422 -0.516035 -0.285896
0.0778027 -0.515625 -0.285845
0.0798535 -0.515215 -0.285793
0.0819043 -0.514785 -0.285738
0.0839648 -0.514355 -0.285681
0.0860156 -0.513906 -0.285622
0.0880566 -0.513438 -0.285562
0.0900977 -0.512969 -0.285499
0.0921387 -0.51249 -0.285435
0.0941797 -0.511992 -0.285368
0.0962207 -0.511504 -0.285299
0.0982422 -0.510977 -0.285229
0.100273 -0.510449 -0.285157
0.102305 -0.509922 -0.285082
0.104316 -0.509355 -0.285006
0.106338 -0.508799 -0.284927
0.10835 -0.508223 -0.284847
0.110361 -0.507637 -0.284765
0.112363 -0.507041 -0.284681
0.114365 -0.506426 -0.284595
0.116367 -0.505811 -0.284507
0.118359 -0.505176 -0.284417
0.120352 -0.504541 -0.284326
0.122344 -0.503877 -0.284232
0.124326 -0.503223 -0.284136
0.126299 -0.502539 -0.284039
0.128281 -0.501855 -0.28394
0.130244 -0.501152 -0.283838
0.132217 -0.500439 -0.283735
0.13417 -0.499727 -0.28363
0.136133 -0.499004 -0.283524
0.138086 -0.498252 -0.283415
0.140029 -0.49749 -0.283304
0.141973 -0.496729 -0.283192
0.143916 -0.495947 -0.283078
0.14584 -0.495176 -0.282962
0.147773 -0.494375 -0.282844
0.149697 -0.493574 -0.282724
0.151611 -0.492744 -0.282603
0.153525 -0.491924 -0.282479
0.15542 -0.491084 -0.282354
0.157422 -0.490508 -0.282388
0.159424 -0.489971 -0.282439
0.161426 -0.489404 -0.282488
0.163418 -0.488838 -0.282534
0.165391 -0.488242 -0.282579
0.167393 -0.487656 -0.282621
0.169375 -0.487041 -0.28266
0.171357 -0.486436 -0.282698
0.17333 -0.485801 -0.282733
0.175293 -0.485146 -0.282765
0.177266 -0.484492 -0.282796
0.179229 -0.483828 -0.282824
0.181191 -0.483145 -0.28285
0.183145 -0.482441 -0.282873
0.185088 -0.481738 -0.282895
0.187041 -0.481025 -0.282913
0.188984 -0.480303 -0.28293
0.190918 -0.479561 -0.282944
0.192861 -0.478799 -0.282956
0.194795 -0.478057 -0.282966
0.196709 -0.477266 -0.282973
0.198633 -0.476484 -0.282978
0.200547 -0.475693 -0.282981
0.202461 -0.474883 -0.282981
0.204365 -0.474053 -0.282979
0.20627 -0.473232 -0.282974
0.208164 -0.472373 -0.282968
0.210049 -0.471523 -0.282959
0.211943 -0.470664 -0.282947
0.213818 -0.469775 -0.282934
0.215693 -0.468887 -0.282918
0.217568 -0.467988 -0.282899
0.219424 -0.46709 -0.282879
0.221289 -0.466152 -0.282856
0.223135 -0.465205 -0.282831
0.22499 -0.464277 -0.282803
0.226826 -0.46332 -0.282773
0.228662 -0.462353 -0.282741
0.230488 -0.461357 -0.282707
0.232305 -0.460381 -0.28267
0.234131 -0.459385 -0.282631
0.235937 -0.458359 -0.282589
0.237734 -0.457334 -0.282546
0.239531 -0.456299 -0.2825
0.241338 -0.455283 -0.282451
0.243115 -0.454219 -0.282401
0.244893 -0.453154 -0.282348
0.24667 -0.45207 -0.282293
0.248437 -0.450986 -0.282235
0.250186 -0.449883 -0.282176
0.251934 -0.44877 -0.282114
0.253682 -0.447666 -0.28205
0.25543 -0.446533 -0.281983
0.257158 -0.4454 -0.281914
0.258867 -0.444238 -0.281843
0.260586 -0.443086 -0.28177
0.262295 -0.441904 -0.281695
0.263994 -0.440732 -0.281617
0.265693 -0.439531 -0.281537
0.267383 -0.438359 -0.281455
0.269062 -0.437139 -0.28137
0.270732 -0.435918 -0.281283
0.272393 -0.434678 -0.281195
0.274053 -0.433447 -0.281104
0.275703 -0.432197 -0.28101
0.277344 -0.430947 -0.280915
0.278975 -0.429678 -0.280817
0.280596 -0.428389 -0.280717
0.282217 -0.427109 -0.280615
0.283828 -0.425811 -0.280511
0.28542 -0.424502 -0.280405
0.287021 -0.423184 -0.280296
0.288613 -0.421875 -0.280186
0.290176 -0.420527 -0.280073
0.291748 -0.419189 -0.279958
0.293301 -0.417842 -0.279841
0.294854 -0.416475 -0.279721
0.296396 -0.415107 -0.2796
0.297939 -0.41375 -0.279477
0.299463 -0.412344 -0.279351
0.300977 -0.410957 -0.279224
0.30249 -0.409541 -0.279094
0.303994 -0.408135 -0.278962
0.305488 -0.406719 -0.278828
0.306963 -0.405283 -0.278692
0.308437 -0.403848 -0.278554
0.309902 -0.402393 -0.278414
0.311367 -0.400947 -0.278272
0.312803 -0.399492 -0.278128
0.314248 -0.398018 -0.277982
0.315674 -0.396543 -0.277834
0.31709 -0.395059 -0.277684
0.318516 -0.393564 -0.277532
0.319902 -0.392051 -0.277378
0.321299 -0.390557 -0.277222
0.322686 -0.389043 -0.277064
0.324053 -0.3875 -0.276904
0.32542 -0.385977 -0.276742
0.326777 -0.384443 -0.276578
0.328125 -0.382891 -0.276412
0.329463 -0.381338 -0.276245
0.330781 -0.379775 -0.276071
0.33209 -0.378193 -0.275889
0.333389 -0.376602 -0.275705
0.334668 -0.375 -0.27552
0.335947 -0.373408 -0.275333
0.337217 -0.371807 -0.275145
0.338477 -0.370186 -0.274955
0.339717 -0.368564 -0.274764
0.340957 -0.366934 -0.274571
0.342197 -0.365303 -0.274376
0.343408 -0.363662 -0.27418
0.344629 -0.362031 -0.273983
0.34583 -0.360381 -0.273784
0.347021 -0.35873 -0.273583
0.348193 -0.357061 -0.273382
0.349365 -0.355381 -0.273178
0.350527 -0.353711 -0.272973
0.35168 -0.352031 -0.272767
0.352832 -0.350352 -0.27256
0.353965 -0.348672 -0.27235
0.355088 -0.346963 -0.27214
0.356201 -0.345264 -0.271928
0.357305 -0.343574 -0.271715
0.358398 -0.341855 -0.271501
0.359482 -0.340146 -0.271285
0.360557 -0.338418 -0.271067
0.361621 -0.336699 -0.270849
0.362676 -0.334971 -0.270629
0.363721 -0.333232 -0.270408
0.364766 -0.331504 -0.270185
0.365801 -0.329766 -0.269961
0.366816 -0.328018 -0.269736
0.367812 -0.32626 -0.26951
0.433633 -0.381533 -0.316615
0.431875 -0.376924 -0.314217
0.430049 -0.372295 -0.311798
0.428164 -0.367656 -0.309359
0.42623 -0.363037 -0.306909
0.424248 -0.358418 -0.304442
0.422217 -0.353799 -0.301959
0.420146 -0.349199 -0.299467
0.418027 -0.344619 -0.296966
0.415859 -0.34002 -0.294456
0.413652 -0.335449 -0.291942
0.411416 -0.330908 -0.289419
0.409141 -0.326377 -0.286894
0.406836 -0.321885 -0.284366
0.404502 -0.317383 -0.281837
0.402139 -0.31293 -0.27931
0.399736 -0.308486 -0.276784
0.400986 -0.306895 -0.276786
0.403018 -0.305879 -0.277342
0.405059 -0.304873 -0.277895
0.40707 -0.303828 -0.278445
0.409102 -0.302783 -0.278993
0.411113 -0.301738 -0.279537
0.413125 -0.300664 -0.280079
0.415117 -0.299561 -0.280618
0.417119 -0.298467 -0.281154
0.419102 -0.297344 -0.281686
0.421084 -0.296211 -0.282216
0.423066 -0.295068 -0.282742
0.425029 -0.293906 -0.283266
0.426992 -0.292734 -0.283785
0.428945 -0.291553 -0.284301
0.430889 -0.290342 -0.284815
0.432832 -0.289131 -0.285324
0.434756 -0.2879 -0.28583
0.43668 -0.28665 -0.286333
0.438584 -0.285391 -0.286832
0.440479 -0.284102 -0.287327
0.442383 -0.282822 -0.287818
0.444268 -0.281523 -0.288306
0.446143 -0.280205 -0.28879
0.448018 -0.278867 -0.289269
0.449873 -0.277529 -0.289745
0.451709 -0.276152 -0.290217
0.453555 -0.274785 -0.290685
0.455381 -0.273398 -0.291148
0.457188 -0.271982 -0.291608
0.458994 -0.270566 -0.292063
0.460791 -0.269131 -0.292514
0.462568 -0.267695 -0.292961
0.464346 -0.26623 -0.293403
0.466103 -0.264756 -0.29384
0.467852 -0.263252 -0.294274
0.46959 -0.261768 -0.294702
0.471318 -0.260244 -0.295126
0.473037 -0.258711 -0.295546
0.474736 -0.257187 -0.295961
0.476426 -0.255625 -0.296371
0.478096 -0.254043 -0.296776
0.479766 -0.252461 -0.297175
0.481416 -0.250859 -0.297571
0.483057 -0.249258 -0.297961
0.484678 -0.247627 -0.298347
0.486279 -0.245986 -0.298727
0.487871 -0.244336 -0.299102
0.489473 -0.242686 -0.299472
0.491025 -0.241006 -0.299836
0.492588 -0.239316 -0.300196
0.494121 -0.237607 -0.30055
0.4779 0.122666 -0.270458
0.476367 0.124316 -0.269874
0.47498 0.125986 -0.269371
0.473613 0.127646 -0.268882
0.472227 0.129336 -0.268391
0.47084 0.130977 -0.267898
0.469629 0.132695 -0.267507
0.46874 0.134463 -0.267308
0.467842 0.13625 -0.267105
0.466924 0.138027 -0.266898
0.466006 0.139795 -0.266688
0.465049 0.141553 -0.266474
0.464111 0.143301 -0.266255
0.463135 0.145039 -0.266032
0.462148 0.146787 -0.265806
0.461162 0.148506 -0.265576
0.460156 0.150225 -0.265343
0.459141 0.151934 -0.265105
0.458105 0.153643 -0.264864
0.457061 0.155342 -0.264619
0.456006 0.157031 -0.26437
0.454932 0.158711 -0.264118
0.453857 0.160371 -0.263861
0.452764 0.162021 -0.263602
0.45165 0.163701 -0.263338
0.450537 0.165352 -0.263071
0.449404 0.166982 -0.262801
0.448262 0.168604 -0.262527
0.447109 0.170234 -0.26225
0.445937 0.171836 -0.261969
0.444766 0.173437 -0.261685
0.443574 0.175039 -0.261397
0.442373 0.176621 -0.261106
0.441172 0.178184 -0.260812
0.439932 0.179775 -0.260514
0.438701 0.181328 -0.260213
0.437461 0.182871 -0.259909
0.436201 0.184414 -0.259602
0.434941 0.185937 -0.259291
0.433662 0.187461 -0.258978
0.432373 0.188984 -0.258661
0.431084 0.190459 -0.258341
0.429775 0.191963 -0.258018
0.428457 0.193447 -0.257692
0.427129 0.194912 -0.257363
0.425791 0.196377 -0.25703
0.424443 0.197832 -0.256695
0.423096 0.199268 -0.256358
0.421719 0.200703 -0.256017
0.420352 0.202129 -0.255673
0.418965 0.203535 -0.255327
0.417578 0.204922 -0.254978
0.416162 0.206338 -0.254626
0.414766 0.207695 -0.254271
0.41333 0.209092 -0.253914
0.411904 0.210439 -0.253554
0.410479 0.211777 -0.253191
0.409023 0.213135 -0.252826
0.407568 0.214473 -0.252459
0.406103 0.215791 -0.252088
0.404639 0.21708 -0.251716
0.403164 0.218389 -0.25134
0.40168 0.219668 -0.250963
0.400186 0.220957 -0.250583
0.398682 0.222217 -0.2502
0.397178 0.223486 -0.249816
0.395664 0.224736 -0.249429
0.394141 0.225957 -0.24904
0.392607 0.227187 -0.248648
0.391074 0.228408 -0.248255
0.389521 0.229609 -0.247859
0.387969 0.230811 -0.247461
0.386426 0.231982 -0.247061
0.384854 0.233154 -0.246659
0.383281 0.234326 -0.246255
0.381719 0.235449 -0.245849
0.380127 0.236602 -0.245441
0.378535 0.237744 -0.245031
0.376953 0.238848 -0.244619
0.375352 0.239961 -0.244205
0.37374 0.241064 -0.24379
0.372129 0.242148 -0.243372
0.370859 0.243437 -0.243179
0.369863 0.244912 -0.243165
0.368848 0.246377 -0.24315
0.367832 0.247842 -0.243135
0.366816 0.249316 -0.243119
0.365781 0.250762 -0.243103
0.364746 0.252217 -0.243086
0.363701 0.253662 -0.243068
0.362656 0.255098 -0.243049
0.361602 0.256523 -0.24303
0.360537 0.257959 -0.243011
0.359463 0.259385 -0.24299
0.358379 0.26082 -0.242969
0.357295 0.262236 -0.242948
0.356211 0.263643 -0.242925
0.355117 0.265039 -0.242902
0.354014 0.266436 -0.242878
0.3529 0.267832 -0.242854
0.351787 0.269219 -0.242829
0.350674 0.270596 -0.242803
0.349531 0.271992 -0.242777
0.348398 0.273359 -0.242751
0.347256 0.274727 -0.242723
0.346113 0.276084 -0.242695
0.344961 0.277441 -0.242666
0.343799 0.278789 -0.242637
0.342637 0.280137 -0.242607
0.341465 0.281475 -0.242576
0.340283 0.282813 -0.242544
0.339102 0.284141 -0.242513
0.33791 0.285459 -0.24248
0.336719 0.286777 -0.242447
0.335498 0.288096 -0.242413
0.334307 0.289395 -0.242378
0.333086 0.290693 -0.242343
0.331875 0.291992 -0.242307
0.330635 0.293281 -0.24227
0.329414 0.294561 -0.242233
0.328174 0.29583 -0.242196
0.326934 0.2971 -0.242158
0.325674 0.298369 -0.242119
0.324424 0.299619 -0.242079
0.323154 0.300889 -0.242039
0.321895 0.302109 -0.241998
0.320625 0.303359 -0.241956
0.319346 0.30459 -0.241915
0.318057 0.30582 -0.241872
0.316777 0.307041 -0.241828
0.315479 0.308262 -0.241785
0.31418 0.309463 -0.24174
0.312871 0.310674 -0.241695
0.311562 0.311865 -0.241649
0.310254 0.313047 -0.241603
0.308926 0.314238 -0.241556
0.307607 0.31543 -0.241508
0.30627 0.316582 -0.24146
0.304932 0.317754 -0.241411
0.303594 0.318916 -0.241362
0.302246 0.320068 -0.241312
0.300889 0.321211 -0.241262
0.299541 0.322354 -0.24121
0.298174 0.323486 -0.241159
0.296797 0.324609 -0.241106
0.295439 0.325713 -0.241053
0.294062 0.326816 -0.241
0.292676 0.327939 -0.240946
0.291279 0.329043 -0.240891
0.289902 0.330117 -0.240836
0.288496 0.331221 -0.24078
0.2871 0.332285 -0.240723
0.285693 0.333369 -0.240666
0.284277 0.334434 -0.240609
0.282861 0.335498 -0.240551
0.281445 0.336543 -0.240492
0.28002 0.337588 -0.240432
0.278594 0.338623 -0.240372
0.277158 0.339658 -0.240312
0.275723 0.340693 -0.240251
0.274277 0.341709 -0.240189
0.272832 0.342715 -0.240127
0.271387 0.343711 -0.240064
0.269932 0.344707 -0.240001
0.268467 0.345713 -0.239937
0.26708 0.346797 -0.23994
0.265693 0.347852 -0.239944
0.264287 0.348926 -0.239946
0.262881 0.34999 -0.239948
0.261484 0.351035 -0.239949
0.260068 0.3521 -0.23995
0.258643 0.353154 -0.239951
0.257227 0.35418 -0.23995
0.255801 0.355205 -0.23995
0.254365 0.35623 -0.239949
0.25293 0.357246 -0.239947
0.251494 0.358262 -0.239945
0.250059 0.359258 -0.239942
0.248594 0.360264 -0.239938
0.247139 0.36125 -0.239935
0.245693 0.362227 -0.23993
0.244219 0.363213 -0.239925
0.242754 0.36418 -0.23992
0.241279 0.365146 -0.239914
0.239805 0.366113 -0.239907
0.23832 0.367051 -0.2399
0.236836 0.367998 -0.239892
0.235352 0.368936 -0.239884
0.233857 0.369873 -0.239876
0.232363 0.370771 -0.239866
0.230859 0.371689 -0.239857
0.229355 0.372607 -0.239847
0.227842 0.373525 -0.239836
0.226328 0.374424 -0.239825
0.224814 0.375293 -0.239813
0.223291 0.376182 -0.2398
0.221758 0.377051 -0.239788
0.220234 0.37791 -0.239774
0.218701 0.378779 -0.23976
0.217168 0.379629 -0.239746
0.215625 0.380479 -0.239731
0.214082 0.381328 -0.239715
0.212529 0.382148 -0.239699
0.210977 0.382978 -0.239683
0.209414 0.383799 -0.239666
0.207861 0.3846 -0.239648
0.206299 0.3854 -0.23963
0.204736 0.386191 -0.239611
0.203154 0.386992 -0.239592
0.201582 0.387773 -0.239573
0.2 0.388555 -0.239552
0.198418 0.389326 -0.239532
0.196836 0.390088 -0.23951
0.195254 0.39083 -0.239489
0.193662 0.391562 -0.239466
0.19207 0.392314 -0.239444
0.190469 0.393047 -0.23942
0.188877 0.39376 -0.239397
0.187266 0.394482 -0.239372
0.185654 0.395195 -0.239347
0.184053 0.395898 -0.239322
0.182441 0.396572 -0.239296
0.18082 0.397266 -0.23927
0.179199 0.397949 -0.239243
0.177588 0.398623 -0.23922
0.176006 0.399404 -0.239255
0.174424 0.400166 -0.239289
0.172842 0.400908 -0.239323
0.17125 0.40167 -0.239357
0.169658 0.402402 -0.23939
0.168066 0.403125 -0.239423
0.166465 0.403857 -0.239455
0.164863 0.40459 -0.239487
0.163252 0.405303 -0.239519
0.16165 0.405996 -0.23955
0.160029 0.406719 -0.239581
0.158418 0.407393 -0.239611
0.156797 0.408076 -0.239641
0.155176 0.40876 -0.239671
0.153545 0.409434 -0.2397
0.151924 0.410098 -0.239729
0.150283 0.410752 -0.239757
0.148652 0.411396 -0.239785
0.147021 0.412021 -0.239812
0.145381 0.412656 -0.239839
0.143721 0.413301 -0.239866
0.14209 0.413906 -0.239892
0.140439 0.414521 -0.239918
0.138779 0.415146 -0.239943
0.137129 0.415723 -0.239968
0.135469 0.416309 -0.239993
0.133799 0.416895 -0.240017
0.132139 0.41748 -0.240041
0.130469 0.418047 -0.240064
0.128799 0.418613 -0.240087
0.127139 0.41916 -0.240109
0.125449 0.419717 -0.240132
0.123779 0.420244 -0.240153
0.1221 0.420781 -0.240174
0.12041 0.421309 -0.240195
0.11873 0.421826 -0.240215
0.117041 0.422334 -0.240235
0.115352 0.422832 -0.240255
0.113662 0.42333 -0.240274
0.111973 0.423809 -0.240293
0.110273 0.424287 -0.240311
0.108574 0.424756 -0.240329
0.106875 0.425225 -0.240346
0.105176 0.425674 -0.240363
0.103467 0.426123 -0.240379
0.101758 0.426572 -0.240395
0.100049 0.427002 -0.240411
0.0983398 0.427422 -0.240426
0.0966309 0.427842 -0.240441
0.0949121 0.428262 -0.240455
0.0931934 0.428662 -0.240469
0.0914746 0.429062 -0.240482
0.0897559 0.429443 -0.240495
0.0880371 0.429814 -0.240508
0.0863086 0.430205 -0.24052
0.0845801 0.430557 -0.240532
0.0828516 0.430928 -0.240543
0.081123 0.43126 -0.240554
0.0793945 0.431611 -0.240564
0.077666 0.431934 -0.240574
0.0759277 0.432275 -0.240584
0.0741895 0.432598 -0.240593
0.0724609 0.432881 -0.240602
0.0707227 0.433184 -0.24061
0.0689746 0.433506 -0.240618
0.0672363 0.433779 -0.240625
0.065498 0.434053 -0.240632
0.06375 0.434336 -0.240639
0.0620117 0.43459 -0.240645
0.0602637 0.434863 -0.240654
0.0585156 0.435117 -0.240663
0.0567676 0.435352 -0.240672
0.0550195 0.435605 -0.240681
0.0532617 0.43583 -0.240689
0.0515234 0.436055 -0.240697
0.0497656 0.43627 -0.240704
0.0480176 0.436475 -0.240711
0.04625 0.43668 -0.240717
0.0445117 0.436885 -0.240723
0.0427539 0.437061 -0.240729
0.0409961 0.437227 -0.240734
0.0392383 0.437412 -0.240739
0.0374805 0.437578 -0.240743
0.0357227 0.437725 -0.240747
0.0339648 0.437861 -0.24075
0.0321973 0.438008 -0.240753
0.0304395 0.438145 -0.240756
0.0286816 0.438262 -0.240758
0.0269043 0.438379 -0.240759
0.0251563 0.438477 -0.24076
0.0233887 0.438594 -0.240761
0.0216211 0.438672 -0.240762
0.0198633 0.43876 -0.240762
0.0181055 0.438818 -0.240761
0.0163379 0.438896 -0.24076
0.0145703 0.438975 -0.240759
0.0128125 0.439014 -0.240757
0.0110352 0.439053 -0.240755
0.00927734 0.439082 -0.240752
0.0075 0.439121 -0.240749
0.00574219 0.439131 -0.240746
0.00398437 0.43915 -0.240742
0.0022168 0.43915 -0.240737
0.000449219 0.43915 -0.240733
-0.00131836 0.43915 -0.240735
-0.00307617 0.439141 -0.24074
-0.00484375 0.439141 -0.240744
-0.00661133 0.439131 -0.240748
-0.00837891 0.439102 -0.240751
-0.0101465 0.439082 -0.240754
-0.0119043 0.439023 -0.240756
-0.0136719 0.438975 -0.240758
-0.0154395 0.438936 -0.24076
-0.0171973 0.438857 -0.240761
-0.0189648 0.438789 -0.240762
-0.0207324 0.438721 -0.240762
-0.0224902 0.438623 -0.240762
-0.0242578 0.438525 -0.240761
-0.0260156 0.438437 -0.24076
-0.027793 0.43833 -0.240759
-0.029541 0.438203 -0.240757
-0.0312988 0.438066 -0.240754
-0.0330664 0.437939 -0.240751
-0.0348242 0.437803 -0.240748
-0.036582 0.437656 -0.240745
-0.0383398 0.43748 -0.240741
-0.0400977 0.437314 -0.240736
-0.0418555 0.437148 -0.240731
-0.0436133 0.436973 -0.240726
-0.0453711 0.436787 -0.24072
-0.0471191 0.436582 -0.240714
-0.048877 0.436377 -0.240707
-0.050625 0.436162 -0.2407
-0.0523828 0.435947 -0.240693
-0.0541309 0.435713 -0.240685
-0.0558789 0.435479 -0.240677
-0.057627 0.435244 -0.240668
-0.059375 0.43498 -0.240659
-0.061123 0.434727 -0.240649
-0.0628613 0.434453 -0.240642
-0.0646094 0.434199 -0.240635
-0.0663477 0.433916 -0.240629
-0.0680957 0.433643 -0.240621
-0.069834 0.43334 -0.240614
-0.0715723 0.433047 -0.240606
-0.0733105 0.432734 -0.240598
-0.0750488 0.432422 -0.240589
-0.0767871 0.432109 -0.240579
-0.0785156 0.431768 -0.24057
-0.0802441 0.431436 -0.240559
-0.0819824 0.431094 -0.240549
-0.0837109 0.430732 -0.240538
-0.0854297 0.430381 -0.240526
-0.0871582 0.43 -0.240514
-0.0888867 0.429629 -0.240502
-0.0906055 0.429248 -0.240489
-0.0923242 0.428867 -0.240476
-0.094043 0.428467 -0.240462
-0.0957617 0.428047 -0.240448
-0.0974707 0.427637 -0.240433
-0.0991895 0.427227 -0.240419
-0.100898 0.426797 -0.240403
-0.102607 0.426348 -0.240387
-0.104307 0.425908 -0.240371
-0.106016 0.425449 -0.240354
-0.107715 0.42499 -0.240337
-0.109414 0.424521 -0.24032
-0.111113 0.424053 -0.240302
-0.112812 0.423574 -0.240283
-0.114502 0.423086 -0.240264
-0.116191 0.422588 -0.240245
-0.117881 0.42208 -0.240225
-0.11957 0.421572 -0.240205
-0.12125 0.421035 -0.240185
-0.12293 0.420518 -0.240164
-0.1246 0.41998 -0.240142
-0.126289 0.419434 -0.240121
-0.127959 0.418896 -0.240098
-0.129619 0.41832 -0.240076
-0.131289 0.417764 -0.240052
-0.132949 0.417187 -0.240029
-0.134619 0.416611 -0.240005
-0.136289 0.416035 -0.239981
-0.137939 0.415439 -0.239956
-0.1396 0.414834 -0.239931
-0.14124 0.414219 -0.239905
-0.142891 0.413604 -0.239879
-0.144541 0.412988 -0.239853
-0.146182 0.412344 -0.239826
-0.147822 0.411709 -0.239799
-0.149453 0.411064 -0.239771
-0.151094 0.41041 -0.239743
-0.152715 0.409756 -0.239714
-0.154355 0.409102 -0.239685
-0.155967 0.408418 -0.239656
-0.157588 0.407734 -0.239626
-0.159209 0.407051 -0.239596
-0.16082 0.406357 -0.239565
-0.162432 0.405654 -0.239534
-0.164053 0.404941 -0.239503
-0.165645 0.404219 -0.239471
-0.167246 0.403506 -0.239439
-0.168848 0.402773 -0.239406
-0.170439 0.402041 -0.239373
-0.172031 0.401289 -0.23934
-0.173623 0.400537 -0.239306
-0.175205 0.399785 -0.239272
-0.176787 0.399014 -0.239237
-0.178379 0.398281 -0.239229
-0.18 0.397617 -0.239256
-0.181621 0.396934 -0.239283
-0.183232 0.39625 -0.239309
-0.184844 0.395537 -0.239335
-0.186455 0.394844 -0.23936
-0.188057 0.394121 -0.239384
-0.189658 0.393408 -0.239409
-0.19125 0.392666 -0.239432
-0.192852 0.391934 -0.239455
-0.194443 0.391211 -0.239478
-0.196035 0.390449 -0.2395
-0.197627 0.389707 -0.239521
-0.199209 0.388936 -0.239542
-0.200781 0.388164 -0.239563
-0.202363 0.387383 -0.239582
-0.203936 0.386602 -0.239602
-0.205488 0.385811 -0.239621
-0.207061 0.38501 -0.239639
-0.208623 0.384199 -0.239657
-0.210176 0.383369 -0.239674
-0.211748 0.382568 -0.239691
-0.213281 0.381719 -0.239707
-0.214834 0.380908 -0.239723
-0.216377 0.380059 -0.239738
-0.21791 0.379209 -0.239753
-0.219453 0.378359 -0.239767
-0.220986 0.37749 -0.239781
-0.22252 0.376621 -0.239794
-0.224033 0.375732 -0.239807
-0.225566 0.374854 -0.239819
-0.22707 0.373965 -0.23983
-0.228584 0.373066 -0.239841
-0.230088 0.372168 -0.239852
-0.231602 0.37126 -0.239862
-0.233096 0.370332 -0.239871
-0.23459 0.369395 -0.23988
-0.236084 0.368457 -0.239889
-0.237568 0.367529 -0.239896
-0.239053 0.366572 -0.239904
-0.240537 0.365625 -0.23991
-0.242012 0.364658 -0.239917
-0.243477 0.363682 -0.239923
-0.244941 0.362715 -0.239928
-0.246406 0.361738 -0.239932
-0.247852 0.360742 -0.239937
-0.249316 0.359775 -0.23994
-0.250762 0.35876 -0.239943
-0.252197 0.357754 -0.239946
-0.253643 0.356728 -0.239948
-0.255078 0.355723 -0.239949
-0.256504 0.354697 -0.23995
-0.25793 0.353662 -0.239951
-0.259355 0.352637 -0.239951
-0.260762 0.351582 -0.23995
-0.262178 0.350527 -0.239949
-0.263574 0.349453 -0.239947
-0.264971 0.348389 -0.239945
-0.266367 0.347334 -0.239942
-0.267764 0.34625 -0.239939
-0.26918 0.345205 -0.239969
-0.270645 0.344219 -0.240033
-0.27209 0.343223 -0.240096
-0.273545 0.342217 -0.240158
-0.27499 0.341201 -0.24022
-0.276426 0.340176 -0.240282
-0.277861 0.339141 -0.240343
-0.279297 0.338115 -0.240403
-0.280723 0.33707 -0.240462
-0.282148 0.336025 -0.240521
-0.283564 0.334951 -0.24058
-0.28498 0.333916 -0.240638
-0.286387 0.332832 -0.240695
-0.287783 0.331758 -0.240752
-0.28918 0.330664 -0.240808
-0.290576 0.32958 -0.240864
-0.291973 0.328496 -0.240918
-0.293359 0.327383 -0.240973
-0.294736 0.326279 -0.241027
-0.296113 0.325166 -0.24108
-0.29748 0.324043 -0.241133
-0.298838 0.32291 -0.241185
-0.300205 0.321777 -0.241236
-0.301562 0.320645 -0.241287
-0.3029 0.319482 -0.241337
-0.304248 0.31834 -0.241387
-0.305596 0.317168 -0.241436
-0.306924 0.316006 -0.241484
-0.308252 0.314824 -0.241532
-0.30957 0.313643 -0.241579
-0.310889 0.312471 -0.241626
-0.312207 0.31126 -0.241672
-0.313516 0.310059 -0.241718
-0.314814 0.308857 -0.241763
-0.316113 0.307656 -0.241807
-0.317402 0.306426 -0.24185
-0.318691 0.305205 -0.241893
-0.319971 0.303975 -0.241936
-0.32125 0.302744 -0.241977
-0.32252 0.301504 -0.242018
-0.323779 0.300254 -0.242059
-0.325039 0.299004 -0.242099
-0.326279 0.297734 -0.242138
-0.327529 0.296465 -0.242177
-0.328779 0.295205 -0.242215
-0.33001 0.293916 -0.242252
-0.33125 0.292637 -0.242289
-0.332471 0.291348 -0.242325
-0.333691 0.290049 -0.242361
-0.334902 0.28875 -0.242395
-0.336094 0.287432 -0.24243
-0.337305 0.286123 -0.242463
-0.338486 0.284805 -0.242496
-0.339678 0.283467 -0.242529
-0.340859 0.282148 -0.24256
-0.342031 0.280811 -0.242591
-0.343203 0.279463 -0.242622
-0.344365 0.278115 -0.242651
-0.345527 0.276768 -0.242681
-0.34668 0.27541 -0.242709
-0.347822 0.274043 -0.242737
-0.348955 0.272686 -0.242764
-0.350078 0.271289 -0.242791
-0.351221 0.269922 -0.242816
-0.352334 0.268535 -0.242842
-0.353447 0.267139 -0.242866
-0.354561 0.265742 -0.24289
-0.355645 0.264336 -0.242914
-0.356748 0.262939 -0.242936
-0.357832 0.261523 -0.242958
-0.358906 0.260098 -0.24298
-0.35998 0.258682 -0.243
-0.361045 0.257236 -0.24302
-0.362119 0.25582 -0.24304
-0.363164 0.254385 -0.243059
-0.364209 0.25292 -0.243077
-0.365254 0.251494 -0.243094
-0.366289 0.250029 -0.243111
-0.367314 0.248574 -0.243127
-0.36833 0.2471 -0.243143
-0.369346 0.245645 -0.243157
-0.370352 0.24417 -0.243172
-0.371348 0.242695 -0.243185
-0.37293 0.241592 -0.243581
-0.374541 0.240508 -0.243998
-0.376143 0.239395 -0.244412
-0.377734 0.238291 -0.244825
-0.379316 0.237158 -0.245236
-0.380908 0.236025 -0.245645
-0.38249 0.234893 -0.246052
-0.384062 0.23374 -0.246457
-0.385625 0.232559 -0.24686
-0.387187 0.231387 -0.247261
-0.38874 0.230205 -0.24766
-0.390283 0.229004 -0.248057
-0.391826 0.227803 -0.248452
-0.393359 0.226582 -0.248844
-0.394883 0.225342 -0.249235
-0.396406 0.224102 -0.249623
-0.39792 0.222852 -0.250009
-0.399424 0.221602 -0.250392
-0.400918 0.220322 -0.250773
-0.402412 0.219043 -0.251152
-0.403887 0.217734 -0.251528
-0.405361 0.216436 -0.251902
-0.406826 0.215117 -0.252274
-0.408291 0.213799 -0.252643
-0.409736 0.212471 -0.253009
-0.411172 0.211113 -0.253373
-0.412617 0.209766 -0.253735
-0.414033 0.208398 -0.254093
-0.415449 0.207012 -0.254449
-0.416865 0.205635 -0.254802
-0.418252 0.204229 -0.255153
-0.419648 0.202832 -0.255501
-0.421016 0.201406 -0.255846
-0.422393 0.19999 -0.256188
-0.42375 0.198545 -0.256527
-0.425107 0.197109 -0.256863
-0.426445 0.195645 -0.257197
-0.427783 0.194189 -0.257527
-0.429102 0.192695 -0.257855
-0.43041 0.191211 -0.25818
-0.431719 0.189707 -0.258501
-0.433008 0.188213 -0.25882
-0.434287 0.186699 -0.259135
-0.435566 0.185186 -0.259447
-0.436826 0.183643 -0.259756
-0.438076 0.1821 -0.260062
-0.439316 0.180537 -0.260364
-0.440547 0.178984 -0.260664
-0.441748 0.177402 -0.26096
-0.442969 0.17583 -0.261252
-0.44416 0.174248 -0.261542
-0.445342 0.172637 -0.261828
-0.446504 0.171035 -0.26211
-0.447666 0.169414 -0.262389
-0.448818 0.167793 -0.262664
-0.449951 0.166152 -0.262937
-0.451084 0.164521 -0.263205
-0.452197 0.162871 -0.263471
-0.453291 0.161201 -0.263732
-0.454385 0.159541 -0.26399
-0.455459 0.157861 -0.264244
-0.456523 0.156182 -0.264495
-0.457578 0.154482 -0.264742
-0.458613 0.152773 -0.264985
-0.459639 0.151074 -0.265225
-0.460645 0.149355 -0.26546
-0.46165 0.147637 -0.265692
-0.462637 0.145908 -0.26592
-0.463613 0.14417 -0.266144
-0.46458 0.142432 -0.266365
-0.465508 0.140674 -0.266581
-0.466445 0.138896 -0.266794
-0.467363 0.137129 -0.267003
-0.468271 0.135361 -0.267207
-0.46917 0.133564 -0.267408
-0.470127 0.131797 -0.267651
-0.471523 0.130156 -0.268145
-0.47291 0.128496 -0.268637
-0.474287 0.126826 -0.269127
-0.475654 0.125137 -0.269615
-0.477129 0.123486 -0.270167
-0.4921 -0.188496 -0.296506
-0.490967 -0.190342 -0.296291
-0.489834 -0.192178 -0.29607
-0.488682 -0.193994 -0.295844
-0.48752 -0.195811 -0.295612
-0.486338 -0.197607 -0.295375
-0.485146 -0.199385 -0.295132
-0.483926 -0.201182 -0.294884
-0.482705 -0.202939 -0.29463
-0.481455 -0.204697 -0.294371
-0.480205 -0.206445 -0.294107
-0.478926 -0.208203 -0.293837
-0.477627 -0.209922 -0.293562
-0.476328 -0.211631 -0.293281
-0.47502 -0.21333 -0.292995
-0.473682 -0.215029 -0.292705
-0.472334 -0.216719 -0.292409
-0.470986 -0.218379 -0.292108
-0.4696 -0.220039 -0.291802
-0.468213 -0.221689 -0.291491
-0.466816 -0.22333 -0.291175
-0.4654 -0.224941 -0.290854
-0.463965 -0.226572 -0.290528
-0.462529 -0.228174 -0.290197
-0.461074 -0.229775 -0.289861
-0.459609 -0.231348 -0.289521
-0.458125 -0.23291 -0.289175
-0.456631 -0.234473 -0.288826
-0.455127 -0.236016 -0.288471
-0.453613 -0.237539 -0.288112
-0.45208 -0.239053 -0.287748
-0.450537 -0.240576 -0.28738
-0.448984 -0.24207 -0.287007
-0.447412 -0.243555 -0.28663
-0.44584 -0.24501 -0.286248
-0.444258 -0.246475 -0.285862
-0.442646 -0.24793 -0.285472
-0.441035 -0.249346 -0.285077
-0.439414 -0.250781 -0.284678
-0.437783 -0.252178 -0.284276
-0.436152 -0.253574 -0.283868
-0.434492 -0.254951 -0.283457
-0.432832 -0.256318 -0.283042
-0.431152 -0.257686 -0.282623
-0.429473 -0.259023 -0.2822
-0.427783 -0.260342 -0.281773
-0.426074 -0.26167 -0.281342
-0.424365 -0.262979 -0.280908
-0.422646 -0.264258 -0.28047
-0.420918 -0.265547 -0.280027
-0.41918 -0.266797 -0.279582
-0.417422 -0.268066 -0.279133
-0.415674 -0.269297 -0.27868
-0.413906 -0.270518 -0.278223
-0.412139 -0.271729 -0.277764
-0.410352 -0.27293 -0.2773
-0.408564 -0.274111 -0.276834
-0.406758 -0.275303 -0.276364
-0.404961 -0.276445 -0.275891
-0.403154 -0.277598 -0.275415
-0.401338 -0.27873 -0.274935
-0.399502 -0.279854 -0.274453
-0.397666 -0.280957 -0.273967
-0.39584 -0.282041 -0.273479
-0.393984 -0.283115 -0.272987
-0.392129 -0.284189 -0.272493
-0.390273 -0.285234 -0.271995
-0.388408 -0.286279 -0.271495
-0.386533 -0.287324 -0.270992
-0.384658 -0.28832 -0.270487
-0.382773 -0.289316 -0.269978
-0.380889 -0.290303 -0.269467
-0.378994 -0.291279 -0.268954
-0.3771 -0.292236 -0.268438
-0.375195 -0.293184 -0.26792
-0.373281 -0.294121 -0.267399
-0.371377 -0.295029 -0.266876
-0.36957 -0.296025 -0.26643
-0.367764 -0.297012 -0.265987
-0.366533 -0.298467 -0.265963
-0.365332 -0.299951 -0.265966
-0.364121 -0.301416 -0.265968
-0.36291 -0.302881 -0.26597
-0.361689 -0.304336 -0.26597
-0.360469 -0.305781 -0.265969
-0.359229 -0.307236 -0.265968
-0.357988 -0.308672 -0.265965
-0.357012 -0.310332 -0.266161
-0.356045 -0.312021 -0.266379
-0.355088 -0.313701 -0.266595
-0.354102 -0.315391 -0.26681
-0.353115 -0.317061 -0.267023
-0.352109 -0.318721 -0.267235
-0.351104 -0.320391 -0.267445
-0.350088 -0.322061 -0.267654
-0.349063 -0.323711 -0.267861
-0.348027 -0.325352 -0.268067
-0.346982 -0.326992 -0.268271
-0.345918 -0.328643 -0.268474
-0.344844 -0.330283 -0.268675
-0.343779 -0.331904 -0.268874
-0.342695 -0.333535 -0.269072
-0.341592 -0.335156 -0.269268
-0.340498 -0.336768 -0.269463
-0.339385 -0.338369 -0.269656
-0.338252 -0.33999 -0.269848
-0.337119 -0.341562 -0.270038
-0.335986 -0.343164 -0.270226
-0.334834 -0.344746 -0.270412
-0.333672 -0.346318 -0.270597
-0.3325 -0.34791 -0.27078
-0.331328 -0.349473 -0.270962
-0.330137 -0.351025 -0.271141
-0.328936 -0.352588 -0.271319
-0.327734 -0.354141 -0.271496
-0.326514 -0.355674 -0.27167
-0.325293 -0.357227 -0.271843
-0.324053 -0.35874 -0.272014
-0.322812 -0.360273 -0.272183
-0.321553 -0.361797 -0.272351
-0.320293 -0.363301 -0.272517
-0.319014 -0.364814 -0.27268
-0.317744 -0.366299 -0.272843
-0.316455 -0.367793 -0.273003
-0.315166 -0.369268 -0.273162
-0.313848 -0.370742 -0.273318
-0.312529 -0.372217 -0.273473
-0.311201 -0.373682 -0.273626
-0.309873 -0.375127 -0.273777
-0.308525 -0.376582 -0.273927
-0.307178 -0.378037 -0.274074
-0.30582 -0.379463 -0.274219
-0.304453 -0.380879 -0.274363
-0.303076 -0.382295 -0.274505
-0.301689 -0.383711 -0.274644
-0.300293 -0.385127 -0.274782
-0.298896 -0.386504 -0.274918
-0.29748 -0.3879 -0.275052
-0.296055 -0.389287 -0.275184
-0.294629 -0.390654 -0.275315
-0.293193 -0.392021 -0.275443
-0.291758 -0.393369 -0.275569
-0.290293 -0.394727 -0.275693
-0.288848 -0.396045 -0.275815
-0.287363 -0.397393 -0.275936
-0.285889 -0.398711 -0.276054
-0.284404 -0.400029 -0.27617
-0.28291 -0.401328 -0.276284
-0.281406 -0.402627 -0.276397
-0.279902 -0.403906 -0.276507
-0.278389 -0.405205 -0.276615
-0.276855 -0.406475 -0.276721
-0.275332 -0.407725 -0.276826
-0.273789 -0.408984 -0.276927
-0.272236 -0.410234 -0.277027
-0.270684 -0.411475 -0.277126
-0.269121 -0.412695 -0.277221
-0.267549 -0.413926 -0.277315
-0.265977 -0.415127 -0.277407
-0.264385 -0.416328 -0.277496
-0.262793 -0.41751 -0.277584
-0.261201 -0.418711 -0.277669
-0.25958 -0.419883 -0.277753
-0.257978 -0.421045 -0.277834
-0.256348 -0.422187 -0.277913
-0.254727 -0.42333 -0.27799
-0.253076 -0.424473 -0.278065
-0.251445 -0.425596 -0.278138
-0.249785 -0.426719 -0.278208
-0.248145 -0.427803 -0.278277
-0.246484 -0.428906 -0.278343
-0.244814 -0.42999 -0.278408
-0.243125 -0.431064 -0.27847
-0.241455 -0.432139 -0.278529
-0.239756 -0.433193 -0.278587
-0.238057 -0.434248 -0.278643
-0.236357 -0.435283 -0.278696
-0.234648 -0.436309 -0.278748
-0.23293 -0.437334 -0.278797
-0.231211 -0.43833 -0.278843
-0.229482 -0.439336 -0.278888
-0.227754 -0.440313 -0.278931
-0.226016 -0.441299 -0.278971
-0.224268 -0.442256 -0.279009
-0.22252 -0.443213 -0.279045
-0.220762 -0.44417 -0.279079
-0.219004 -0.445078 -0.279111
-0.217236 -0.446006 -0.27914
-0.215459 -0.446934 -0.279167
-0.213682 -0.447822 -0.279193
-0.211885 -0.44873 -0.279215
-0.210107 -0.4496 -0.279236
-0.208311 -0.450478 -0.279255
-0.206514 -0.451328 -0.279271
-0.204707 -0.452178 -0.279285
-0.2029 -0.453018 -0.279297
-0.201084 -0.453848 -0.279306
-0.199258 -0.454668 -0.279314
-0.197422 -0.455469 -0.279319
-0.195596 -0.45627 -0.279322
-0.19377 -0.457051 -0.279323
-0.191924 -0.457812 -0.279322
-0.190088 -0.458574 -0.279318
-0.188223 -0.459336 -0.279312
-0.186377 -0.460078 -0.279304
-0.184512 -0.46082 -0.279294
-0.182656 -0.461514 -0.279282
-0.180791 -0.462227 -0.279267
-0.178916 -0.46293 -0.27925
-0.177041 -0.463623 -0.279231
-0.175166 -0.464277 -0.27921
-0.173281 -0.464941 -0.279187
-0.171396 -0.465596 -0.279161
-0.169512 -0.46623 -0.279133
-0.167617 -0.466865 -0.279103
-0.165723 -0.467471 -0.279071
-0.163818 -0.468086 -0.279037
-0.161914 -0.468682 -0.279
-0.16001 -0.469258 -0.278961
-0.158096 -0.469834 -0.27892
-0.156201 -0.470469 -0.278918
-0.154385 -0.471289 -0.279043
-0.152559 -0.472109 -0.279167
-0.150723 -0.47293 -0.279289
-0.148887 -0.47374 -0.279409
-0.147041 -0.474541 -0.279527
-0.145195 -0.475313 -0.279644
-0.14334 -0.476094 -0.279759
-0.141484 -0.476855 -0.279872
-0.139619 -0.477627 -0.279984
-0.137754 -0.478359 -0.280094
-0.135879 -0.479092 -0.280202
-0.134004 -0.479814 -0.280308
-0.132119 -0.480537 -0.280412
-0.130234 -0.48124 -0.280515
-0.12835 -0.481934 -0.280616
-0.126455 -0.482617 -0.280715
-0.124551 -0.483291 -0.280813
-0.122656 -0.483945 -0.280908
-0.120752 -0.48459 -0.281002
-0.118838 -0.485244 -0.281094
-0.116914 -0.485869 -0.281184
-0.115 -0.486494 -0.281272
-0.113086 -0.48709 -0.281359
-0.111162 -0.487686 -0.281444
-0.109238 -0.488262 -0.281526
-0.107305 -0.488857 -0.281608
-0.105352 -0.489414 -0.281687
-0.103428 -0.489971 -0.281764
-0.101475 -0.490518 -0.28184
-0.0995312 -0.491035 -0.281913
-0.0975879 -0.491562 -0.281985
-0.095625 -0.49207 -0.282055
-0.0936719 -0.492568 -0.282123
-0.091709 -0.493066 -0.282189
-0.0897461 -0.493535 -0.282254
-0.0877832 -0.494004 -0.282316
-0.0858105 -0.494473 -0.282377
-0.0838379 -0.494912 -0.282436
-0.0818652 -0.495352 -0.282493
-0.0798926 -0.495771 -0.282548
-0.0779102 -0.496172 -0.282601
-0.0759277 -0.496562 -0.282652
-0.0739453 -0.496973 -0.282701
-0.0719629 -0.497353 -0.282748
-0.0699707 -0.497705 -0.282794
-0.0679785 -0.498047 -0.282837
-0.0659863 -0.498408 -0.282879
-0.0639941 -0.498682 -0.282893
-0.0619824 -0.498916 -0.282885
-0.0599707 -0.49916 -0.282876
-0.0579687 -0.499365 -0.282864
-0.055957 -0.49958 -0.282851
-0.0539453 -0.499766 -0.282835
-0.0519336 -0.499951 -0.282818
-0.0499219 -0.500107 -0.282799
-0.0479004 -0.500283 -0.282778
-0.0458887 -0.50043 -0.282755
-0.043877 -0.500557 -0.282731
-0.0418555 -0.500693 -0.282704
-0.039834 -0.500811 -0.282676
-0.0378223 -0.500898 -0.282646
-0.0358008 -0.501016 -0.282614
-0.0337891 -0.501074 -0.28258
-0.0317676 -0.501143 -0.282544
-0.0297461 -0.501201 -0.282506
-0.0277246 -0.50126 -0.282467
-0.0257129 -0.501289 -0.282426
-0.0236914 -0.501309 -0.282382
-0.0216699 -0.501318 -0.282337
-0.0196484 -0.501318 -0.28229
-0.0176367 -0.501309 -0.282242
-0.0156152 -0.501289 -0.282191
-0.0135938 -0.50124 -0.282139
-0.011582 -0.501221 -0.282085
-0.00956055 -0.501152 -0.282029
-0.00754883 -0.501074 -0.281971
-0.00553711 -0.500996 -0.281911
-0.00351562 -0.500908 -0.28185
-0.00150391 -0.500811 -0.281786
0.000507812 -0.500742 -0.281754
0.00251953 -0.500859 -0.281818
0.00454102 -0.500957 -0.281881
0.00655273 -0.501045 -0.281941
0.00856445 -0.501113 -0.282
0.0105859 -0.501182 -0.282057
0.0125977 -0.501221 -0.282112
0.0146191 -0.501279 -0.282165
0.0166406 -0.501299 -0.282217
0.0186523 -0.501318 -0.282266
0.0206738 -0.501328 -0.282314
0.0226953 -0.501328 -0.28236
0.024707 -0.501289 -0.282404
0.0267285 -0.50127 -0.282446
0.02875 -0.501221 -0.282487
0.0307715 -0.501172 -0.282525
0.0327832 -0.501113 -0.282562
0.0348047 -0.501035 -0.282597
0.0368262 -0.500967 -0.28263
0.0388379 -0.500869 -0.282661
0.0408594 -0.500752 -0.28269
0.0428809 -0.500625 -0.282718
0.0448926 -0.500498 -0.282743
0.0469043 -0.500361 -0.282767
0.0489258 -0.500205 -0.282789
0.0509375 -0.500049 -0.282809
0.0529492 -0.499853 -0.282827
0.0549609 -0.499678 -0.282843
0.0569727 -0.499473 -0.282858
0.0589844 -0.499258 -0.28287
0.0609961 -0.499053 -0.282881
0.062998 -0.498809 -0.28289
0.0650098 -0.498555 -0.282896
0.067002 -0.498242 -0.282859
0.0689941 -0.497891 -0.282816
0.0709863 -0.49752 -0.282771
0.0729688 -0.497158 -0.282725
0.0749512 -0.496758 -0.282677
0.0769434 -0.496377 -0.282626
0.078916 -0.495967 -0.282574
0.0808984 -0.495557 -0.28252
0.0828711 -0.495127 -0.282464
0.0848437 -0.494678 -0.282406
0.0868066 -0.494248 -0.282347
0.0887793 -0.493779 -0.282285
0.0907422 -0.493311 -0.282222
0.0926953 -0.492822 -0.282157
0.094668 -0.492324 -0.282089
0.0966211 -0.491826 -0.28202
0.0985742 -0.491309 -0.281949
0.100518 -0.490791 -0.281877
0.102461 -0.490234 -0.281802
0.104404 -0.489707 -0.281726
0.106348 -0.489141 -0.281647
0.108281 -0.488574 -0.281567
0.110205 -0.487979 -0.281485
0.112139 -0.487393 -0.281402
0.114062 -0.486807 -0.281316
0.115986 -0.486182 -0.281228
0.117891 -0.485557 -0.281139
0.119805 -0.484922 -0.281048
0.121719 -0.484277 -0.280955
0.123613 -0.483613 -0.280861
0.125527 -0.482969 -0.280764
0.127422 -0.482275 -0.280666
0.129307 -0.481582 -0.280566
0.131191 -0.480889 -0.280464
0.133076 -0.480176 -0.28036
0.134951 -0.479463 -0.280255
0.136826 -0.47874 -0.280148
0.138691 -0.477978 -0.280039
0.140557 -0.477227 -0.279928
0.142422 -0.476484 -0.279816
0.144277 -0.475723 -0.279702
0.146123 -0.474932 -0.279586
0.147969 -0.474131 -0.279468
0.149814 -0.47333 -0.279349
0.15165 -0.472529 -0.279228
0.153477 -0.471709 -0.279105
0.155303 -0.470879 -0.278981
0.157148 -0.470107 -0.278899
0.159062 -0.469541 -0.278941
0.160977 -0.468975 -0.278981
0.162881 -0.468379 -0.279019
0.164785 -0.467793 -0.279054
0.16668 -0.467158 -0.279087
0.168574 -0.466543 -0.279118
0.170469 -0.465918 -0.279147
0.172354 -0.465264 -0.279174
0.174238 -0.464609 -0.279198
0.176123 -0.463945 -0.279221
0.177998 -0.463262 -0.279241
0.179873 -0.462578 -0.279259
0.181738 -0.461875 -0.279275
0.183604 -0.461162 -0.279288
0.185459 -0.460439 -0.279299
0.187314 -0.459707 -0.279308
0.18917 -0.458975 -0.279315
0.191006 -0.458203 -0.27932
0.192861 -0.457441 -0.279323
0.194697 -0.45666 -0.279323
0.196523 -0.455869 -0.279321
0.19835 -0.455068 -0.279317
0.200176 -0.454258 -0.27931
0.201992 -0.453428 -0.279302
0.203809 -0.452607 -0.279291
0.205615 -0.451758 -0.279278
0.207422 -0.450908 -0.279263
0.209219 -0.450049 -0.279246
0.211006 -0.44916 -0.279226
0.212793 -0.448271 -0.279204
0.21458 -0.447373 -0.27918
0.216357 -0.446475 -0.279154
0.218125 -0.445557 -0.279126
0.219893 -0.444619 -0.279095
0.22165 -0.443691 -0.279063
0.223408 -0.442734 -0.279028
0.225156 -0.441787 -0.27899
0.226895 -0.440791 -0.278951
0.228633 -0.439824 -0.27891
0.230361 -0.438828 -0.278866
0.23209 -0.437832 -0.27882
0.233809 -0.436816 -0.278772
0.235518 -0.435791 -0.278722
0.237227 -0.434766 -0.27867
0.238926 -0.43373 -0.278615
0.240605 -0.432666 -0.278559
0.242295 -0.431602 -0.2785
0.243984 -0.430537 -0.278439
0.245654 -0.429453 -0.278376
0.247324 -0.428369 -0.27831
0.248984 -0.427256 -0.278243
0.250625 -0.426152 -0.278173
0.252275 -0.425029 -0.278102
0.253916 -0.423896 -0.278028
0.255547 -0.422764 -0.277952
0.257168 -0.421602 -0.277874
0.258789 -0.420459 -0.277794
0.26041 -0.419297 -0.277711
0.262002 -0.418105 -0.277627
0.263604 -0.416924 -0.277541
0.265195 -0.415732 -0.277452
0.266777 -0.414521 -0.277361
0.26835 -0.413301 -0.277269
0.269912 -0.41208 -0.277174
0.271475 -0.41085 -0.277077
0.273027 -0.409609 -0.276978
0.27457 -0.408359 -0.276877
0.276113 -0.4071 -0.276774
0.277637 -0.40583 -0.276669
0.27916 -0.404561 -0.276561
0.280664 -0.403271 -0.276452
0.282178 -0.401992 -0.276341
0.283682 -0.400684 -0.276228
0.285166 -0.399375 -0.276112
0.28665 -0.398057 -0.275995
0.288125 -0.396738 -0.275876
0.28959 -0.395391 -0.275755
0.291045 -0.394053 -0.275631
0.29249 -0.392695 -0.275506
0.293926 -0.391328 -0.275379
0.295361 -0.389971 -0.27525
0.296787 -0.388594 -0.275119
0.298193 -0.387207 -0.274986
0.299609 -0.38583 -0.274851
0.301006 -0.384424 -0.274714
0.302393 -0.383008 -0.274575
0.303779 -0.381602 -0.274434
0.305146 -0.380166 -0.274291
0.306514 -0.37875 -0.274147
0.307871 -0.377314 -0.274
0.309219 -0.375869 -0.273852
0.310557 -0.374414 -0.273702
0.311885 -0.372949 -0.27355
0.313203 -0.371484 -0.273396
0.314512 -0.37001 -0.27324
0.31582 -0.368545 -0.273083
0.317119 -0.367061 -0.272923
0.318389 -0.365547 -0.272762
0.319668 -0.364053 -0.272599
0.320947 -0.362559 -0.272434
0.322197 -0.361035 -0.272267
0.323447 -0.359512 -0.272099
0.324678 -0.357978 -0.271929
0.325908 -0.356445 -0.271757
0.327148 -0.354922 -0.271583
0.32835 -0.353369 -0.271408
0.329551 -0.351807 -0.27123
0.330742 -0.350254 -0.271052
0.331924 -0.348691 -0.270871
