ply
format ascii 1.0
comment Created by Open3D
element vertex 1668
property float x
property float y
property float z
end_header
0.291541 -0.715508 -0.328212
0.294373 -0.714238 -0.328166
0.297197 -0.71293 -0.328117
0.300012 -0.711621 -0.328064
0.302818 -0.710293 -0.328007
0.305615 -0.708926 -0.327947
0.308403 -0.707559 -0.327883
0.311181 -0.706172 -0.327816
0.313949 -0.704766 -0.327745
0.316708 -0.70332 -0.327671
0.319456 -0.701875 -0.327593
0.322195 -0.70041 -0.327512
0.324924 -0.698945 -0.327427
0.327643 -0.697441 -0.327339
0.330351 -0.695918 -0.327247
0.333049 -0.694375 -0.327151
0.335736 -0.692832 -0.327052
0.338412 -0.69125 -0.32695
0.341078 -0.689668 -0.326844
0.343733 -0.688066 -0.326734
0.346376 -0.686426 -0.326622
0.349008 -0.684785 -0.326505
0.35163 -0.683125 -0.326386
0.354239 -0.681465 -0.326263
0.356838 -0.679766 -0.326136
0.359424 -0.678047 -0.326006
0.361999 -0.676328 -0.325873
0.364561 -0.67457 -0.325736
0.367113 -0.672812 -0.325596
0.369651 -0.671035 -0.325453
0.372178 -0.669258 -0.325305
0.374692 -0.667441 -0.325155
0.377194 -0.665605 -0.325002
0.379684 -0.66377 -0.324845
0.425302 -0.736641 -0.361338
0.436804 -0.74959 -0.368547
0.448747 -0.763027 -0.376033
0.461154 -0.776953 -0.383808
0.474052 -0.791406 -0.391892
0.487472 -0.806445 -0.400303
0.501446 -0.82207 -0.409061
0.516006 -0.83834 -0.418187
0.509651 0.459453 -0.291488
0.505382 0.459297 -0.290101
0.501133 0.459141 -0.288719
0.496904 0.458945 -0.287343
0.492693 0.45875 -0.285972
0.488503 0.458516 -0.284608
0.484332 0.458281 -0.283249
0.480181 0.458027 -0.281896
0.47605 0.457754 -0.280548
0.471939 0.457461 -0.279207
0.467847 0.457168 -0.277872
0.463777 0.456836 -0.276542
0.459725 0.456504 -0.275218
0.455694 0.456152 -0.273901
0.451684 0.455781 -0.27259
0.447694 0.45541 -0.271284
0.443724 0.45502 -0.269985
0.439775 0.454609 -0.268692
0.435847 0.45418 -0.267405
0.431939 0.45375 -0.266124
0.428051 0.453301 -0.26485
0.424185 0.452832 -0.263581
0.420338 0.452363 -0.262319
0.416565 0.451934 -0.261096
0.413327 0.452051 -0.260204
0.410098 0.452148 -0.259313
0.406879 0.452266 -0.258425
0.403669 0.452344 -0.257539
0.400468 0.452402 -0.256655
0.397277 0.452441 -0.255774
0.394095 0.45248 -0.254894
0.390924 0.4525 -0.254017
0.387762 0.4525 -0.253143
0.38461 0.4525 -0.252271
0.382228 0.453359 -0.251901
0.380276 0.454746 -0.251818
0.378319 0.456133 -0.251734
0.376356 0.45748 -0.251649
0.374386 0.458848 -0.251564
0.372411 0.460176 -0.251478
0.37043 0.461523 -0.251391
0.368443 0.462832 -0.251303
0.36645 0.46416 -0.251214
0.364451 0.465449 -0.251125
0.362447 0.466758 -0.251034
0.360437 0.468027 -0.250943
0.358422 0.469297 -0.250852
0.356401 0.470566 -0.250759
0.354375 0.471816 -0.250666
0.352343 0.473066 -0.250572
0.350306 0.474297 -0.250477
0.348263 0.475527 -0.250381
0.346216 0.476738 -0.250285
0.344163 0.47793 -0.250188
0.342105 0.479121 -0.25009
0.340043 0.480312 -0.249992
0.337975 0.481484 -0.249893
0.33602 0.482812 -0.24988
0.33407 0.484141 -0.249875
0.332114 0.485469 -0.24987
0.330151 0.486797 -0.249864
0.328183 0.488105 -0.249857
0.326208 0.489414 -0.249849
0.324227 0.490703 -0.249841
0.32224 0.491973 -0.249832
0.320247 0.493242 -0.249822
0.318248 0.494512 -0.249811
0.316243 0.495762 -0.2498
0.314233 0.497012 -0.249788
0.312216 0.498242 -0.249775
0.310194 0.499453 -0.249761
0.308166 0.500684 -0.249747
0.306132 0.501875 -0.249732
0.304093 0.503066 -0.249716
0.302048 0.504258 -0.2497
0.299998 0.50543 -0.249682
0.297942 0.506602 -0.249664
0.295881 0.507754 -0.249646
0.293815 0.508906 -0.249626
0.291743 0.510039 -0.249606
0.289666 0.511152 -0.249585
0.287584 0.512285 -0.249563
0.285496 0.513379 -0.249541
0.283404 0.514473 -0.249518
0.281307 0.515566 -0.249494
0.279204 0.516641 -0.249469
0.277097 0.517695 -0.249444
0.274985 0.51877 -0.249418
0.272868 0.519805 -0.249391
0.270746 0.52084 -0.249364
0.26862 0.521875 -0.249335
0.266489 0.522871 -0.249306
0.264353 0.523887 -0.249277
0.262213 0.524883 -0.249246
0.260068 0.525859 -0.249215
0.257919 0.526855 -0.249183
0.255766 0.527812 -0.249151
0.253608 0.528769 -0.249117
0.251447 0.529707 -0.249083
0.24928 0.530645 -0.249049
0.24711 0.531563 -0.249013
0.244935 0.53248 -0.248977
0.242757 0.533379 -0.24894
0.240575 0.534277 -0.248903
0.238389 0.535156 -0.248864
0.236198 0.536016 -0.248826
0.234004 0.536875 -0.248786
0.231806 0.537734 -0.248745
0.229605 0.538574 -0.248704
0.2274 0.539394 -0.248662
0.225191 0.540215 -0.24862
0.222979 0.541016 -0.248577
0.220764 0.541816 -0.248533
0.218545 0.542598 -0.248488
0.216322 0.543379 -0.248443
0.214097 0.544141 -0.248397
0.211867 0.544883 -0.24835
0.209635 0.545645 -0.248303
0.2074 0.546367 -0.248255
0.205162 0.54709 -0.248206
0.202921 0.547793 -0.248156
0.200676 0.548496 -0.248106
0.198429 0.549199 -0.248055
0.196179 0.549863 -0.248004
0.193926 0.550527 -0.247952
0.191671 0.551191 -0.247899
0.189413 0.551836 -0.247845
0.187152 0.55248 -0.247791
0.184949 0.553281 -0.247818
0.182749 0.554102 -0.247852
0.180545 0.554902 -0.247886
0.178337 0.555703 -0.247919
0.176125 0.556484 -0.247952
0.173909 0.557266 -0.247984
0.171689 0.558027 -0.248015
0.169465 0.558789 -0.248046
0.167238 0.559531 -0.248077
0.165007 0.560254 -0.248107
0.162773 0.560977 -0.248136
0.160535 0.561699 -0.248164
0.158294 0.562402 -0.248192
0.156049 0.563105 -0.24822
0.153801 0.563789 -0.248247
0.151549 0.564453 -0.248273
0.149294 0.565117 -0.248298
0.147036 0.565762 -0.248324
0.144775 0.566406 -0.248348
0.14251 0.567051 -0.248372
0.140243 0.567656 -0.248395
0.137972 0.568281 -0.248418
0.135699 0.568867 -0.24844
0.133423 0.569473 -0.248462
0.131143 0.570039 -0.248483
0.128862 0.570605 -0.248503
0.126576 0.571172 -0.248523
0.124289 0.571719 -0.248542
0.121999 0.572266 -0.248561
0.119706 0.572793 -0.248578
0.117411 0.573301 -0.248596
0.115113 0.573809 -0.248612
0.112812 0.574297 -0.248629
0.11051 0.574785 -0.248644
0.108205 0.575273 -0.248659
0.105897 0.575742 -0.248674
0.103588 0.576191 -0.248687
0.101276 0.576641 -0.2487
0.0989622 0.57707 -0.248713
0.0966464 0.57748 -0.248725
0.0943286 0.577891 -0.248736
0.0920087 0.578301 -0.248747
0.0896867 0.578691 -0.248757
0.0873634 0.579062 -0.248767
0.0850377 0.579434 -0.248776
0.0827106 0.579785 -0.248784
0.0803819 0.580137 -0.248792
0.0780514 0.580469 -0.248799
0.0757193 0.580801 -0.248806
0.0733859 0.581113 -0.248811
0.0710506 0.581406 -0.248817
0.0687141 0.581699 -0.248821
0.0663765 0.581973 -0.248826
0.0640373 0.582246 -0.248829
0.0616971 0.5825 -0.248832
0.0593553 0.582754 -0.248834
0.0570125 0.582988 -0.248836
0.0546687 0.583223 -0.248837
0.0523242 0.583438 -0.248837
0.0499782 0.583652 -0.248837
0.0476314 0.583828 -0.248837
0.045284 0.584023 -0.248835
0.0429352 0.584199 -0.248833
0.0405861 0.584355 -0.248831
0.0382364 0.584512 -0.248828
0.0358859 0.584648 -0.248824
0.0335349 0.584766 -0.24882
0.0311833 0.584883 -0.248815
0.028831 0.585 -0.248809
0.0264786 0.585098 -0.248803
0.0241257 0.585176 -0.248796
0.0217723 0.585254 -0.248789
0.0194188 0.585312 -0.248781
0.0170653 0.585371 -0.248772
0.0147112 0.58541 -0.248763
0.0123573 0.585449 -0.248753
0.0100035 0.585469 -0.248745
0.00764969 0.585488 -0.248741
0.00529587 0.585508 -0.248735
0.0029422 0.585508 -0.248729
0.000588226 0.585508 -0.248723
-0.00176529 0.585508 -0.248726
-0.00411896 0.585508 -0.248732
-0.00647308 0.585508 -0.248738
-0.0088269 0.585488 -0.248743
-0.0111804 0.585449 -0.248748
-0.0135347 0.58543 -0.248758
-0.0158885 0.585391 -0.248768
-0.018242 0.585352 -0.248776
-0.0205959 0.585293 -0.248785
-0.0229489 0.585215 -0.248792
-0.025302 0.585137 -0.2488
-0.027655 0.585039 -0.248806
-0.0300073 0.584941 -0.248812
-0.032359 0.584824 -0.248817
-0.0347105 0.584707 -0.248822
-0.0370613 0.58457 -0.248826
-0.0394115 0.584414 -0.248829
-0.041761 0.584277 -0.248832
-0.0441096 0.584121 -0.248834
-0.0464578 0.583945 -0.248836
-0.0488049 0.58375 -0.248837
-0.0511511 0.583555 -0.248837
-0.0534966 0.58334 -0.248837
-0.0558411 0.583105 -0.248837
-0.0581842 0.582891 -0.248835
-0.0605261 0.582637 -0.248833
-0.0628673 0.582383 -0.248831
-0.0652072 0.582129 -0.248827
-0.0675455 0.581836 -0.248824
-0.0698828 0.581562 -0.248819
-0.0722185 0.58125 -0.248814
-0.0745526 0.580957 -0.248808
-0.0768857 0.580625 -0.248802
-0.0792169 0.580293 -0.248795
-0.0815465 0.579961 -0.248788
-0.0838748 0.579609 -0.24878
-0.0862009 0.579238 -0.248771
-0.0885254 0.578867 -0.248762
-0.0908482 0.578496 -0.248752
-0.0931688 0.578086 -0.248742
-0.0954877 0.577695 -0.248731
-0.0978049 0.577266 -0.248719
-0.10012 0.576855 -0.248707
-0.102432 0.576406 -0.248694
-0.104743 0.575957 -0.248681
-0.107051 0.575508 -0.248667
-0.109358 0.575039 -0.248652
-0.111662 0.574551 -0.248636
-0.113963 0.574062 -0.248621
-0.116262 0.573555 -0.248604
-0.118559 0.573047 -0.248587
-0.120853 0.572539 -0.248569
-0.123144 0.571992 -0.248551
-0.125433 0.571445 -0.248532
-0.127719 0.570898 -0.248513
-0.130003 0.570332 -0.248493
-0.132283 0.569766 -0.248472
-0.134561 0.56918 -0.248451
-0.136836 0.568574 -0.248429
-0.139108 0.567969 -0.248407
-0.141377 0.567363 -0.248384
-0.143643 0.566738 -0.24836
-0.145906 0.566094 -0.248336
-0.148166 0.565449 -0.248311
-0.150422 0.564785 -0.248286
-0.152675 0.564121 -0.24826
-0.154925 0.563437 -0.248233
-0.157172 0.562754 -0.248206
-0.159415 0.562051 -0.248178
-0.161654 0.561348 -0.24815
-0.163891 0.560625 -0.248121
-0.166124 0.559883 -0.248092
-0.168352 0.559141 -0.248062
-0.170578 0.558398 -0.248031
-0.172799 0.557637 -0.248
-0.175017 0.556875 -0.247968
-0.177231 0.556094 -0.247935
-0.179441 0.555293 -0.247903
-0.181647 0.554492 -0.247869
-0.18385 0.553691 -0.247835
-0.186048 0.552871 -0.247801
-0.188283 0.552148 -0.247818
-0.190542 0.551504 -0.247872
-0.192799 0.550879 -0.247926
-0.195053 0.550215 -0.247978
-0.197304 0.549531 -0.24803
-0.199553 0.548848 -0.248081
-0.201799 0.548164 -0.248131
-0.204042 0.547461 -0.248181
-0.206282 0.546738 -0.24823
-0.208518 0.546016 -0.248279
-0.210752 0.545273 -0.248327
-0.212983 0.544512 -0.248374
-0.21521 0.54377 -0.24842
-0.217434 0.542988 -0.248465
-0.219655 0.542207 -0.248511
-0.221872 0.541426 -0.248555
-0.224086 0.540625 -0.248598
-0.226296 0.539805 -0.248641
-0.228503 0.538984 -0.248683
-0.230706 0.538145 -0.248725
-0.232906 0.537305 -0.248766
-0.235102 0.536445 -0.248806
-0.237294 0.535586 -0.248845
-0.239482 0.534707 -0.248884
-0.241666 0.533828 -0.248922
-0.243847 0.53293 -0.248959
-0.246023 0.532012 -0.248995
-0.248196 0.531094 -0.249031
-0.250363 0.530176 -0.249066
-0.252528 0.529238 -0.2491
-0.254688 0.528281 -0.249134
-0.256843 0.527324 -0.249167
-0.258995 0.526367 -0.249199
-0.261141 0.525391 -0.249231
-0.263284 0.524395 -0.249261
-0.265422 0.523398 -0.249292
-0.267555 0.522383 -0.249321
-0.269684 0.521367 -0.24935
-0.271808 0.520332 -0.249377
-0.273927 0.519297 -0.249404
-0.276041 0.518242 -0.249431
-0.278151 0.517187 -0.249456
-0.280256 0.516113 -0.249481
-0.282356 0.51502 -0.249506
-0.284451 0.513945 -0.249529
-0.286541 0.512832 -0.249552
-0.288625 0.511719 -0.249574
-0.290705 0.510605 -0.249595
-0.29278 0.509473 -0.249616
-0.294849 0.50834 -0.249636
-0.296912 0.507187 -0.249655
-0.298971 0.506016 -0.249673
-0.301024 0.504844 -0.249691
-0.303071 0.503672 -0.249708
-0.305113 0.50248 -0.249724
-0.30715 0.50127 -0.249739
-0.309181 0.500078 -0.249754
-0.311206 0.498848 -0.249768
-0.313225 0.497617 -0.249781
-0.315239 0.496387 -0.249794
-0.317247 0.495137 -0.249806
-0.319248 0.493867 -0.249817
-0.321245 0.492617 -0.249827
-0.323235 0.491328 -0.249836
-0.325218 0.490039 -0.249845
-0.327196 0.48875 -0.249853
-0.329168 0.487441 -0.24986
-0.331133 0.486133 -0.249867
-0.333093 0.484805 -0.249873
-0.335046 0.483477 -0.249878
-0.336992 0.482129 -0.249882
-0.33901 0.480879 -0.249943
-0.341075 0.479707 -0.250041
-0.343135 0.478535 -0.25014
-0.345191 0.477344 -0.250237
-0.34724 0.476133 -0.250334
-0.349285 0.474922 -0.250429
-0.351325 0.473691 -0.250525
-0.353359 0.472441 -0.250619
-0.355388 0.471211 -0.250713
-0.357412 0.469941 -0.250805
-0.35943 0.468672 -0.250898
-0.361443 0.467402 -0.250989
-0.36345 0.466113 -0.25108
-0.365451 0.464805 -0.251169
-0.367447 0.463496 -0.251258
-0.369437 0.462187 -0.251347
-0.371421 0.460859 -0.251434
-0.373399 0.459512 -0.251521
-0.375372 0.458164 -0.251607
-0.377338 0.456797 -0.251692
-0.379298 0.45543 -0.251776
-0.381253 0.454062 -0.25186
-0.383201 0.452676 -0.251943
-0.386185 0.4525 -0.252707
-0.389342 0.4525 -0.25358
-0.392508 0.45248 -0.254456
-0.395685 0.452461 -0.255334
-0.398871 0.452422 -0.256214
-0.402067 0.452363 -0.257097
-0.405273 0.452305 -0.257982
-0.408488 0.452207 -0.258869
-0.411712 0.452109 -0.259758
-0.414945 0.451992 -0.26065
-0.418423 0.452129 -0.261691
-0.422259 0.452617 -0.26295
-0.426115 0.453066 -0.264215
-0.429993 0.453535 -0.265487
-0.43389 0.453965 -0.266764
-0.437808 0.454395 -0.268048
-0.441748 0.454824 -0.269338
-0.445706 0.455215 -0.270634
-0.449687 0.455605 -0.271936
-0.453687 0.455977 -0.273245
-0.457708 0.456328 -0.274559
-0.461749 0.45668 -0.27588
-0.46581 0.456992 -0.277206
-0.469891 0.457305 -0.278539
-0.473992 0.457598 -0.279877
-0.478114 0.457891 -0.281222
-0.482254 0.458145 -0.282572
-0.486415 0.458398 -0.283928
-0.490596 0.458613 -0.28529
-0.494797 0.458848 -0.286657
-0.499017 0.459043 -0.288031
-0.503255 0.459219 -0.289409
-0.507513 0.459395 -0.290794
-0.525279 -0.812598 -0.423756
-0.510962 -0.797461 -0.414789
-0.497204 -0.782891 -0.406172
-0.48397 -0.768887 -0.397883
-0.471237 -0.755371 -0.389908
-0.45897 -0.742344 -0.382225
-0.378585 -0.617852 -0.317347
-0.376299 -0.619707 -0.317516
-0.374 -0.621543 -0.317682
-0.37169 -0.623359 -0.317846
-0.369366 -0.625156 -0.318006
-0.367031 -0.626953 -0.318163
-0.364685 -0.628711 -0.318317
-0.362326 -0.630488 -0.318467
-0.359955 -0.632227 -0.318615
-0.357573 -0.633945 -0.31876
-0.35518 -0.635664 -0.318902
-0.352774 -0.637363 -0.31904
-0.350358 -0.639043 -0.319176
-0.34793 -0.640723 -0.319308
-0.345491 -0.642363 -0.319437
-0.343041 -0.644004 -0.319563
-0.34058 -0.645645 -0.319685
-0.338108 -0.647246 -0.319805
-0.335625 -0.648848 -0.319921
-0.333132 -0.65041 -0.320035
-0.330629 -0.651973 -0.320145
-0.328114 -0.653516 -0.320251
-0.325591 -0.655039 -0.320355
-0.323055 -0.656543 -0.320455
-0.320511 -0.658047 -0.320552
-0.317956 -0.659512 -0.320646
-0.315391 -0.660977 -0.320736
-0.312816 -0.662422 -0.320824
-0.310233 -0.663848 -0.320908
-0.307639 -0.665254 -0.320989
-0.305036 -0.666641 -0.321066
-0.302423 -0.668027 -0.321141
-0.299801 -0.669375 -0.321211
-0.29717 -0.670723 -0.321279
-0.294531 -0.672051 -0.321343
-0.291882 -0.67334 -0.321404
-0.289225 -0.674629 -0.321462
-0.286559 -0.675918 -0.321517
-0.283885 -0.677168 -0.321568
-0.281202 -0.678398 -0.321615
-0.278511 -0.679609 -0.32166
-0.275812 -0.68082 -0.321701
-0.273105 -0.681992 -0.321738
-0.27039 -0.683164 -0.321773
-0.267668 -0.684316 -0.321804
-0.264937 -0.685449 -0.321832
-0.2622 -0.686562 -0.321856
-0.259455 -0.687656 -0.321877
-0.256702 -0.688711 -0.321895
-0.253943 -0.689785 -0.321909
-0.251177 -0.69082 -0.32192
-0.248403 -0.691836 -0.321928
-0.245623 -0.692832 -0.321932
-0.242837 -0.693828 -0.321933
-0.240044 -0.694785 -0.321931
-0.237245 -0.695742 -0.321925
-0.23444 -0.69666 -0.321916
-0.231628 -0.697578 -0.321903
-0.228811 -0.698457 -0.321888
-0.225988 -0.699336 -0.321868
-0.223159 -0.700195 -0.321846
-0.220325 -0.701016 -0.32182
-0.217485 -0.701836 -0.321791
-0.21464 -0.702637 -0.321758
-0.21179 -0.703418 -0.321722
-0.208935 -0.70418 -0.321683
-0.206076 -0.704922 -0.321641
-0.203211 -0.705625 -0.321595
-0.200342 -0.706328 -0.321545
-0.197469 -0.707031 -0.321493
-0.194591 -0.707695 -0.321437
-0.19171 -0.70834 -0.321378
-0.188824 -0.708984 -0.321315
-0.185934 -0.70959 -0.32125
-0.183041 -0.710176 -0.32118
-0.180144 -0.710742 -0.321108
-0.177244 -0.711289 -0.321032
-0.17434 -0.711816 -0.320953
-0.171433 -0.712344 -0.320871
-0.168523 -0.712832 -0.320786
-0.165611 -0.713301 -0.320697
-0.162695 -0.71375 -0.320605
-0.159777 -0.714199 -0.32051
-0.156857 -0.714609 -0.320411
-0.15393 -0.715 -0.320303
-0.150972 -0.715215 -0.320127
-0.148012 -0.71541 -0.319947
-0.145052 -0.715586 -0.319764
-0.142209 -0.716348 -0.319841
-0.139378 -0.717168 -0.319957
-0.136526 -0.717891 -0.320032
-0.133653 -0.718496 -0.320065
-0.130776 -0.719102 -0.320095
-0.127895 -0.719687 -0.320122
-0.12501 -0.720254 -0.320146
-0.122122 -0.720781 -0.320167
-0.11923 -0.721309 -0.320185
-0.116334 -0.721816 -0.3202
-0.113436 -0.722305 -0.320211
-0.110535 -0.722773 -0.32022
-0.10763 -0.723223 -0.320226
-0.104722 -0.723652 -0.320228
-0.101812 -0.724082 -0.320228
-0.0988994 -0.724473 -0.320224
-0.0959845 -0.724844 -0.320217
-0.093067 -0.725195 -0.320207
-0.0901469 -0.725547 -0.320195
-0.0872256 -0.725859 -0.320179
-0.0843018 -0.726172 -0.320159
-0.0813762 -0.726445 -0.320137
-0.0784491 -0.726719 -0.320112
-0.0755205 -0.726953 -0.320084
-0.0725905 -0.727187 -0.320053
-0.0696591 -0.727383 -0.320018
-0.0667267 -0.727578 -0.319981
-0.063793 -0.727754 -0.31994
-0.0608588 -0.727891 -0.319896
-0.0579234 -0.728027 -0.31985
-0.0549878 -0.728145 -0.3198
-0.0520518 -0.728242 -0.319747
-0.0491153 -0.72832 -0.319692
-0.0461784 -0.728379 -0.319633
-0.0432417 -0.728398 -0.319571
-0.0403052 -0.728437 -0.319506
-0.0373683 -0.728457 -0.319438
-0.0344324 -0.728437 -0.319367
-0.0314964 -0.728398 -0.319293
-0.0285612 -0.72834 -0.319216
-0.0256267 -0.728262 -0.319136
-0.022693 -0.728164 -0.319053
-0.0197603 -0.728066 -0.318967
-0.0168285 -0.72793 -0.318878
-0.0138983 -0.727773 -0.318786
-0.0109692 -0.727617 -0.318691
-0.00804169 -0.727422 -0.318593
-0.00511581 -0.727227 -0.318492
-0.00219162 -0.726992 -0.318389
0.000730743 -0.726875 -0.318336
0.00365372 -0.727109 -0.318441
0.00657898 -0.727324 -0.318543
0.00950577 -0.72752 -0.318643
0.0124339 -0.727695 -0.318739
0.0153638 -0.727852 -0.318832
0.018295 -0.727988 -0.318923
0.0212267 -0.728105 -0.319011
0.0241602 -0.728223 -0.319095
0.027094 -0.728301 -0.319176
0.030029 -0.728359 -0.319255
0.0329645 -0.728398 -0.31933
0.0359007 -0.728437 -0.319403
0.0388368 -0.728437 -0.319472
0.0417737 -0.728437 -0.319539
0.0447104 -0.728398 -0.319602
0.0476472 -0.728359 -0.319662
0.050584 -0.728281 -0.31972
0.0535204 -0.728203 -0.319774
0.0564563 -0.728086 -0.319825
0.0593918 -0.727969 -0.319874
0.0623265 -0.727832 -0.319919
0.0652603 -0.727656 -0.319961
0.0681934 -0.72748 -0.32
0.0711252 -0.727285 -0.320036
0.0740559 -0.72707 -0.320069
0.0769855 -0.726836 -0.320098
0.0799135 -0.726582 -0.320125
0.0828395 -0.726309 -0.320149
0.0857645 -0.726016 -0.32017
0.0886871 -0.725703 -0.320187
0.0916077 -0.725371 -0.320201
0.0945264 -0.72502 -0.320213
0.0974428 -0.724648 -0.320221
0.100357 -0.724277 -0.320226
0.103268 -0.723867 -0.320228
0.106177 -0.723437 -0.320227
0.109083 -0.723008 -0.320224
0.111986 -0.722559 -0.320216
0.114886 -0.72207 -0.320206
0.117783 -0.721582 -0.320193
0.120677 -0.721055 -0.320177
0.123567 -0.720527 -0.320157
0.126453 -0.71998 -0.320135
0.129336 -0.719395 -0.320109
0.132215 -0.718809 -0.32008
0.13509 -0.718203 -0.320049
0.137961 -0.717578 -0.320013
0.140795 -0.716758 -0.319899
0.143622 -0.715918 -0.319782
0.146533 -0.715508 -0.319855
0.149493 -0.715312 -0.320037
0.152452 -0.715098 -0.320215
0.155396 -0.714805 -0.320361
0.158317 -0.714395 -0.320461
0.161237 -0.713984 -0.320558
0.164153 -0.713535 -0.320651
0.167067 -0.713066 -0.320742
0.169979 -0.712578 -0.320829
0.172887 -0.71207 -0.320913
0.175793 -0.711562 -0.320993
0.178695 -0.711016 -0.321071
0.181593 -0.710449 -0.321145
0.184488 -0.709863 -0.321215
0.18738 -0.709277 -0.321283
0.190268 -0.708652 -0.321347
0.193151 -0.708027 -0.321408
0.196031 -0.707363 -0.321465
0.198907 -0.70668 -0.321519
0.201777 -0.705996 -0.32157
0.204645 -0.705273 -0.321618
0.207506 -0.704551 -0.321662
0.210364 -0.703809 -0.321703
0.213216 -0.703027 -0.321741
0.216064 -0.702246 -0.321775
0.218906 -0.701426 -0.321806
0.221743 -0.700605 -0.321833
0.224574 -0.699766 -0.321857
0.2274 -0.698906 -0.321878
0.230221 -0.698027 -0.321896
0.233035 -0.697109 -0.32191
0.235843 -0.696191 -0.321921
0.238646 -0.695254 -0.321928
0.241442 -0.694297 -0.321932
0.244231 -0.69332 -0.321933
0.247014 -0.692324 -0.32193
0.249791 -0.691328 -0.321924
0.252561 -0.690293 -0.321915
0.255324 -0.689238 -0.321902
0.25808 -0.688184 -0.321886
0.260829 -0.687109 -0.321867
0.26357 -0.686016 -0.321844
0.266304 -0.684883 -0.321818
0.26903 -0.68375 -0.321789
0.271749 -0.682598 -0.321756
0.27446 -0.681426 -0.32172
0.277163 -0.680234 -0.32168
0.279858 -0.679023 -0.321638
0.282545 -0.677793 -0.321592
0.285224 -0.676543 -0.321542
0.287894 -0.675273 -0.32149
0.290555 -0.674004 -0.321434
0.293208 -0.672695 -0.321374
0.295853 -0.671387 -0.321312
0.298487 -0.670059 -0.321246
0.301113 -0.668711 -0.321176
0.303731 -0.667344 -0.321104
0.306338 -0.665957 -0.321028
0.308937 -0.664551 -0.320949
0.311526 -0.663125 -0.320866
0.314105 -0.661699 -0.32078
0.316675 -0.660254 -0.320692
0.319235 -0.658769 -0.320599
0.321785 -0.657285 -0.320504
0.324325 -0.655801 -0.320405
0.326854 -0.654277 -0.320303
0.329373 -0.652734 -0.320199
0.331882 -0.651191 -0.32009
0.334381 -0.649629 -0.319978
0.336868 -0.648047 -0.319864
0.339346 -0.646445 -0.319746
0.341812 -0.644824 -0.319624
0.344268 -0.643203 -0.3195
0.346712 -0.641562 -0.319373
0.349146 -0.639883 -0.319242
0.351568 -0.638223 -0.319108
0.353979 -0.636523 -0.318971
0.356378 -0.634824 -0.318831
0.358766 -0.633086 -0.318688
0.361142 -0.631348 -0.318542
0.363507 -0.629609 -0.318392
0.36586 -0.627832 -0.31824
0.368201 -0.626055 -0.318085
0.37053 -0.624258 -0.317926
0.372846 -0.622441 -0.317764
0.375151 -0.620625 -0.3176
0.377444 -0.618789 -0.317432
0.453007 -0.735996 -0.37849
0.465049 -0.748809 -0.386032
0.477545 -0.76207 -0.393859
0.490526 -0.77584 -0.401989
0.504015 -0.790117 -0.410438
0.518049 -0.804961 -0.419227
0.532657 -0.820391 -0.428377
0.50578 0.423828 -0.288991
0.50188 0.424004 -0.287734
0.497994 0.42416 -0.286481
0.49412 0.424297 -0.285232
0.490259 0.424434 -0.283986
0.486412 0.424531 -0.282743
0.482579 0.424609 -0.281505
0.478758 0.424668 -0.28027
0.474953 0.424727 -0.27904
0.47116 0.424746 -0.277812
0.467382 0.424766 -0.276589
0.463619 0.424766 -0.275371
0.45987 0.424746 -0.274156
0.456136 0.424707 -0.272945
0.452417 0.424648 -0.271739
0.448712 0.42457 -0.270537
0.445023 0.424492 -0.269339
0.441349 0.424375 -0.268146
0.43769 0.424258 -0.266957
0.434046 0.424121 -0.265772
0.430419 0.423984 -0.264592
0.426805 0.423809 -0.263416
0.423208 0.423633 -0.262245
0.420023 0.423828 -0.261326
0.416984 0.42416 -0.260493
0.413951 0.424473 -0.259662
0.410924 0.424785 -0.258833
0.407904 0.425078 -0.258005
0.40489 0.425352 -0.257178
0.401885 0.425605 -0.256353
0.398884 0.42584 -0.255529
0.395891 0.426074 -0.254707
0.392906 0.42627 -0.253887
0.389928 0.426465 -0.253068
0.386956 0.42666 -0.252251
0.383993 0.426816 -0.251435
0.381402 0.427383 -0.250862
0.379569 0.428789 -0.250788
0.377729 0.430176 -0.250713
0.375883 0.431562 -0.250637
0.374031 0.432949 -0.250561
0.372173 0.434316 -0.250483
0.370308 0.435664 -0.250405
0.368438 0.437012 -0.250326
0.366561 0.43834 -0.250247
0.364679 0.439668 -0.250166
0.362791 0.440996 -0.250085
0.360897 0.442305 -0.250003
0.358997 0.443613 -0.24992
0.357091 0.444902 -0.249837
0.355181 0.446172 -0.249753
0.353264 0.447441 -0.249668
0.351342 0.448711 -0.249582
0.349414 0.449961 -0.249496
0.347481 0.451211 -0.249408
0.345543 0.452441 -0.249321
0.343599 0.453672 -0.249232
0.34165 0.454883 -0.249142
0.339696 0.456074 -0.249052
0.337737 0.457285 -0.248962
0.335772 0.458457 -0.24887
0.333803 0.459648 -0.248778
0.331828 0.460801 -0.248685
0.329849 0.461953 -0.248591
0.327888 0.463145 -0.248514
0.326019 0.464453 -0.248511
0.324144 0.465742 -0.248507
0.322264 0.467031 -0.248503
0.320377 0.46832 -0.248498
0.318484 0.46959 -0.248492
0.316585 0.470859 -0.248485
0.314681 0.472109 -0.248478
0.312771 0.473359 -0.24847
0.310854 0.47459 -0.248461
0.308932 0.47582 -0.248451
0.307004 0.477031 -0.248441
0.30507 0.478242 -0.24843
0.303132 0.479453 -0.248419
0.301187 0.480645 -0.248407
0.299237 0.481816 -0.248393
0.297281 0.482988 -0.24838
0.29532 0.48416 -0.248365
0.293353 0.485312 -0.24835
0.291381 0.486445 -0.248334
0.289404 0.487578 -0.248318
0.287422 0.488711 -0.2483
0.285434 0.489824 -0.248282
0.283441 0.490938 -0.248264
0.281443 0.492031 -0.248244
0.27944 0.493125 -0.248224
0.277433 0.494199 -0.248203
0.27542 0.495254 -0.248182
0.273402 0.496328 -0.24816
0.27138 0.497363 -0.248137
0.269353 0.498418 -0.248113
0.267321 0.499434 -0.248089
0.265284 0.500449 -0.248064
0.263242 0.501465 -0.248038
0.261197 0.502461 -0.248012
0.259147 0.503457 -0.247985
0.257092 0.504453 -0.247957
0.255033 0.50543 -0.247929
0.252969 0.506387 -0.247899
0.250901 0.507344 -0.24787
0.248829 0.508281 -0.247839
0.246752 0.509219 -0.247808
0.244672 0.510137 -0.247776
0.242588 0.511055 -0.247743
0.240499 0.511953 -0.24771
0.238406 0.512852 -0.247676
0.236309 0.51373 -0.247641
0.234209 0.51459 -0.247606
0.232105 0.515469 -0.24757
0.229997 0.516309 -0.247533
0.227885 0.517148 -0.247496
0.225769 0.517988 -0.247457
0.22365 0.518809 -0.247419
0.221528 0.519629 -0.247379
0.219401 0.52043 -0.247339
0.217272 0.521211 -0.247298
0.215139 0.521992 -0.247257
0.213002 0.522773 -0.247215
0.210863 0.523535 -0.247172
0.208719 0.524277 -0.247128
0.206573 0.52502 -0.247084
0.204424 0.525742 -0.247039
0.202272 0.526465 -0.246994
0.200116 0.527187 -0.246948
0.197958 0.527871 -0.246901
0.195797 0.528574 -0.246853
0.193633 0.529238 -0.246805
0.191466 0.529922 -0.246757
0.189296 0.530566 -0.246707
0.187124 0.53123 -0.246657
0.184971 0.531934 -0.246636
0.182857 0.532734 -0.24667
0.180739 0.533535 -0.246705
0.178617 0.534336 -0.246738
0.176491 0.535117 -0.246771
0.174361 0.535898 -0.246804
0.172228 0.53666 -0.246835
0.170091 0.537422 -0.246867
0.16795 0.538164 -0.246898
0.165806 0.538906 -0.246928
0.163658 0.539629 -0.246958
0.161506 0.540352 -0.246987
0.159351 0.541055 -0.247016
0.157193 0.541758 -0.247044
0.155031 0.542441 -0.247071
0.152866 0.543125 -0.247098
0.150698 0.543789 -0.247124
0.148526 0.544453 -0.24715
0.146351 0.545098 -0.247176
0.144173 0.545723 -0.2472
0.141992 0.546367 -0.247224
0.139808 0.546973 -0.247248
0.137621 0.547578 -0.247271
0.13543 0.548184 -0.247293
0.133237 0.54877 -0.247315
0.131041 0.549355 -0.247336
0.128843 0.549922 -0.247357
0.126642 0.550469 -0.247377
0.124438 0.551016 -0.247397
0.122231 0.551562 -0.247416
0.120021 0.55209 -0.247434
0.117809 0.552598 -0.247452
0.115595 0.553105 -0.247469
0.113378 0.553613 -0.247486
0.111159 0.554102 -0.247502
0.108938 0.55457 -0.247518
0.106714 0.555059 -0.247533
0.104488 0.555508 -0.247547
0.10226 0.555957 -0.247561
0.100029 0.556406 -0.247574
0.0977968 0.556816 -0.247587
0.095562 0.557246 -0.247599
0.0933253 0.557656 -0.24761
0.0910873 0.558047 -0.247621
0.0888469 0.558418 -0.247631
0.0866048 0.558809 -0.247641
0.0843611 0.55916 -0.24765
0.0821152 0.559512 -0.247659
0.079868 0.559863 -0.247667
0.0776193 0.560195 -0.247674
0.0753688 0.560527 -0.247681
0.0731168 0.56082 -0.247688
0.0708635 0.561133 -0.247693
0.0686084 0.561426 -0.247698
0.0663524 0.561699 -0.247703
0.064095 0.561973 -0.247707
0.0618359 0.562246 -0.24771
0.0595763 0.56248 -0.247713
0.0573151 0.562734 -0.247715
0.0550528 0.562949 -0.247717
0.0527895 0.563184 -0.247718
0.0505254 0.563379 -0.247718
0.0482602 0.563574 -0.247718
0.0459941 0.56377 -0.247717
0.0437274 0.563945 -0.247716
0.0414593 0.564121 -0.247714
0.0391911 0.564277 -0.247712
0.0369221 0.564414 -0.247709
0.0346523 0.564551 -0.247705
0.032382 0.564668 -0.247701
0.0301115 0.564785 -0.247696
0.02784 0.564883 -0.247691
0.0255685 0.56498 -0.247685
0.0232965 0.565078 -0.247678
0.021024 0.565137 -0.247671
0.0187514 0.565195 -0.247664
0.0164792 0.565254 -0.247659
0.0142061 0.565313 -0.247656
0.0119334 0.565371 -0.247653
0.00966049 0.565391 -0.247648
0.00738739 0.56541 -0.247644
0.00511429 0.56543 -0.247639
0.00284134 0.56543 -0.247633
0.000568085 0.56543 -0.247627
-0.00170486 0.56543 -0.24763
-0.00397766 0.56543 -0.247636
-0.00625107 0.56543 -0.247641
-0.00852432 0.56541 -0.247646
-0.0107971 0.565371 -0.247651
-0.0130701 0.565332 -0.247654
-0.0153427 0.565293 -0.247658
-0.0176151 0.565234 -0.24766
-0.019888 0.565176 -0.247668
-0.0221602 0.565098 -0.247675
-0.0244324 0.56502 -0.247682
-0.0267044 0.564941 -0.247688
-0.0289758 0.564844 -0.247694
-0.0312466 0.564727 -0.247699
-0.0335175 0.564609 -0.247703
-0.0357874 0.564473 -0.247707
-0.0380566 0.564336 -0.24771
-0.0403255 0.56418 -0.247713
-0.0425934 0.564043 -0.247715
-0.0448607 0.563867 -0.247717
-0.0471272 0.563691 -0.247718
-0.049393 0.563496 -0.247718
-0.0516574 0.563281 -0.247718
-0.0539215 0.563066 -0.247717
-0.0561842 0.562852 -0.247716
-0.0584456 0.562617 -0.247714
-0.0607063 0.562363 -0.247712
-0.0629657 0.562109 -0.247709
-0.0652238 0.561836 -0.247705
-0.0674808 0.561562 -0.247701
-0.069736 0.561289 -0.247696
-0.0719904 0.560977 -0.24769
-0.074243 0.560684 -0.247684
-0.0764943 0.560352 -0.247678
-0.0787437 0.560019 -0.247671
-0.0809921 0.559687 -0.247663
-0.0832384 0.559336 -0.247655
-0.0854832 0.558984 -0.247646
-0.0877264 0.558613 -0.247636
-0.0899673 0.558223 -0.247626
-0.0922066 0.557832 -0.247616
-0.0944443 0.557441 -0.247605
-0.0966797 0.557031 -0.247593
-0.098913 0.556602 -0.24758
-0.101145 0.556172 -0.247567
-0.103374 0.555742 -0.247554
-0.105601 0.555273 -0.24754
-0.107826 0.554824 -0.247525
-0.110049 0.554355 -0.24751
-0.112269 0.553867 -0.247494
-0.114487 0.553379 -0.247478
-0.116703 0.552871 -0.247461
-0.118916 0.552363 -0.247443
-0.121126 0.551836 -0.247425
-0.123334 0.551309 -0.247406
-0.12554 0.550762 -0.247387
-0.127743 0.550195 -0.247367
-0.129943 0.549648 -0.247347
-0.13214 0.549062 -0.247326
-0.134334 0.548477 -0.247304
-0.136526 0.547891 -0.247282
-0.138714 0.547285 -0.247259
-0.1409 0.54668 -0.247236
-0.143083 0.546055 -0.247212
-0.145262 0.54541 -0.247188
-0.147439 0.544766 -0.247163
-0.149612 0.544121 -0.247138
-0.151782 0.543457 -0.247111
-0.153949 0.542773 -0.247085
-0.156113 0.54209 -0.247058
-0.158273 0.541406 -0.24703
-0.16043 0.540703 -0.247001
-0.162583 0.53998 -0.246973
-0.164732 0.539258 -0.246943
-0.166879 0.538535 -0.246913
-0.169021 0.537793 -0.246882
-0.17116 0.537031 -0.246851
-0.173296 0.53627 -0.24682
-0.175427 0.535508 -0.246787
-0.177554 0.534727 -0.246755
-0.179678 0.533926 -0.246721
-0.181798 0.533125 -0.246687
-0.183914 0.532324 -0.246653
-0.186037 0.531543 -0.246632
-0.18821 0.530898 -0.246682
-0.190381 0.530234 -0.246732
-0.19255 0.52959 -0.246781
-0.194715 0.528926 -0.24683
-0.196878 0.528223 -0.246877
-0.199038 0.527539 -0.246924
-0.201195 0.526836 -0.246971
-0.203348 0.526113 -0.247017
-0.205499 0.525391 -0.247062
-0.207647 0.524648 -0.247106
-0.209792 0.523906 -0.24715
-0.211933 0.523145 -0.247193
-0.214071 0.522383 -0.247236
-0.216205 0.521602 -0.247278
-0.218337 0.52082 -0.247319
-0.220465 0.52002 -0.247359
-0.222589 0.519219 -0.247399
-0.22471 0.518398 -0.247438
-0.226828 0.517578 -0.247477
-0.228941 0.516738 -0.247514
-0.231051 0.515879 -0.247552
-0.233157 0.51502 -0.247588
-0.23526 0.51416 -0.247624
-0.237358 0.513281 -0.247659
-0.239453 0.512402 -0.247693
-0.241544 0.511504 -0.247727
-0.24363 0.510586 -0.247759
-0.245713 0.509668 -0.247792
-0.247791 0.50875 -0.247823
-0.249866 0.507812 -0.247854
-0.251936 0.506855 -0.247885
-0.254001 0.505898 -0.247914
-0.256063 0.504941 -0.247943
-0.25812 0.503965 -0.247971
-0.260172 0.502969 -0.247998
-0.262221 0.501973 -0.248025
-0.264264 0.500977 -0.248051
-0.266303 0.499961 -0.248076
-0.268337 0.498926 -0.248101
-0.270367 0.497891 -0.248125
-0.272392 0.496855 -0.248148
-0.274412 0.495801 -0.248171
-0.276427 0.494727 -0.248193
-0.278437 0.493652 -0.248214
-0.280443 0.492578 -0.248234
-0.282443 0.491484 -0.248254
-0.284438 0.490391 -0.248273
-0.286428 0.489277 -0.248291
-0.288413 0.488145 -0.248309
-0.290393 0.487031 -0.248326
-0.292368 0.485879 -0.248342
-0.294337 0.484727 -0.248358
-0.296301 0.483574 -0.248372
-0.29826 0.482402 -0.248387
-0.300212 0.48123 -0.2484
-0.30216 0.480039 -0.248413
-0.304102 0.478848 -0.248425
-0.306038 0.477637 -0.248436
-0.307969 0.476426 -0.248447
-0.309894 0.475195 -0.248456
-0.311813 0.473965 -0.248465
-0.313726 0.472734 -0.248474
-0.315634 0.471484 -0.248482
-0.317536 0.470215 -0.248488
-0.319431 0.468945 -0.248495
-0.321321 0.467676 -0.2485
-0.323205 0.466387 -0.248505
-0.325083 0.465098 -0.248509
-0.326954 0.463789 -0.248513
-0.328858 0.46252 -0.248544
-0.330839 0.461367 -0.248638
-0.332816 0.460215 -0.248732
-0.334788 0.459043 -0.248824
-0.336755 0.457871 -0.248916
-0.338717 0.45668 -0.249007
-0.340674 0.455469 -0.249098
-0.342625 0.454277 -0.249187
-0.344571 0.453066 -0.249276
-0.346513 0.451836 -0.249364
-0.348448 0.450586 -0.249452
-0.350379 0.449336 -0.249539
-0.352303 0.448086 -0.249625
-0.354223 0.446816 -0.24971
-0.356137 0.445547 -0.249795
-0.358045 0.444258 -0.249879
-0.359948 0.442969 -0.249962
-0.361845 0.44166 -0.250044
-0.363736 0.440332 -0.250126
-0.365621 0.439023 -0.250207
-0.3675 0.437676 -0.250286
-0.369373 0.436348 -0.250366
-0.371241 0.43498 -0.250444
-0.373103 0.433633 -0.250522
-0.374958 0.432246 -0.250599
-0.376807 0.430879 -0.250675
-0.37865 0.429492 -0.25075
-0.380486 0.428086 -0.250825
-0.382514 0.426895 -0.251028
-0.385474 0.426738 -0.251843
-0.388442 0.426562 -0.252659
-0.391416 0.426367 -0.253478
-0.394398 0.426172 -0.254297
-0.397387 0.425957 -0.255118
-0.400383 0.425723 -0.255941
-0.403387 0.425469 -0.256766
-0.406397 0.425215 -0.257591
-0.409413 0.424941 -0.258419
-0.412437 0.424648 -0.259248
-0.415467 0.424336 -0.260078
-0.418503 0.424004 -0.260909
-0.421546 0.423672 -0.261742
-0.425005 0.42373 -0.26283
-0.428609 0.423906 -0.264004
-0.43223 0.424062 -0.265182
-0.435867 0.424199 -0.266364
-0.439518 0.424316 -0.267551
-0.443184 0.424434 -0.268742
-0.446866 0.424531 -0.269938
-0.450563 0.424609 -0.271138
-0.454275 0.424668 -0.272342
-0.458002 0.424727 -0.27355
-0.461743 0.424746 -0.274763
-0.465499 0.424766 -0.27598
-0.46927 0.424746 -0.2772
-0.473054 0.424727 -0.278425
-0.476855 0.424688 -0.279655
-0.480667 0.424629 -0.280887
-0.484493 0.42457 -0.282123
-0.488335 0.424473 -0.283364
-0.492188 0.424375 -0.284608
-0.496056 0.424238 -0.285856
-0.499937 0.424102 -0.287108
-0.503829 0.423926 -0.288362
-0.525323 -0.77791 -0.423551
-0.511608 -0.764199 -0.414966
-0.4984 -0.750996 -0.406699
-0.485676 -0.738262 -0.398735
-0.375849 -0.576328 -0.310468
-0.373743 -0.578164 -0.310645
-0.371625 -0.58 -0.31082
-0.369495 -0.581816 -0.310993
-0.367353 -0.583613 -0.311162
-0.3652 -0.585391 -0.311329
-0.363035 -0.587168 -0.311493
-0.360858 -0.588926 -0.311654
-0.35867 -0.590664 -0.311813
-0.35647 -0.592402 -0.311968
-0.354259 -0.594121 -0.312121
-0.352037 -0.59582 -0.312271
-0.349803 -0.59752 -0.312418
-0.347559 -0.599199 -0.312562
-0.345303 -0.600859 -0.312703
-0.343036 -0.6025 -0.312841
-0.340759 -0.60416 -0.312977
-0.338471 -0.605781 -0.313109
-0.336172 -0.607383 -0.313239
-0.333862 -0.608984 -0.313365
-0.331542 -0.610547 -0.313489
-0.329212 -0.612129 -0.31361
-0.326871 -0.613672 -0.313727
-0.324521 -0.615195 -0.313842
-0.32216 -0.616719 -0.313954
-0.319789 -0.618223 -0.314063
-0.317408 -0.619707 -0.314169
-0.315017 -0.621191 -0.314272
-0.312617 -0.622656 -0.314372
-0.310207 -0.624082 -0.314469
-0.307787 -0.625527 -0.314562
-0.305358 -0.626934 -0.314653
-0.30292 -0.62832 -0.314741
-0.300473 -0.629707 -0.314825
-0.298016 -0.631074 -0.314907
-0.295551 -0.632422 -0.314986
-0.293076 -0.63377 -0.315061
-0.290593 -0.635078 -0.315134
-0.288101 -0.636387 -0.315203
-0.2856 -0.637676 -0.315269
-0.283091 -0.638945 -0.315333
-0.280574 -0.640195 -0.315393
-0.278049 -0.641426 -0.31545
-0.275515 -0.642656 -0.315504
-0.272973 -0.643867 -0.315555
-0.270424 -0.645059 -0.315602
-0.267866 -0.64623 -0.315647
-0.265301 -0.647383 -0.315689
-0.262729 -0.648516 -0.315727
-0.260148 -0.649648 -0.315762
-0.257561 -0.650742 -0.315795
-0.254967 -0.651836 -0.315823
-0.252365 -0.65291 -0.315849
-0.249756 -0.653965 -0.315872
-0.24714 -0.655 -0.315892
-0.244518 -0.656035 -0.315908
-0.241889 -0.657031 -0.315922
-0.239254 -0.658027 -0.315932
-0.236612 -0.659004 -0.315939
-0.233964 -0.659941 -0.315943
-0.23131 -0.660879 -0.315944
-0.22865 -0.661797 -0.315942
-0.225984 -0.662715 -0.315936
-0.223312 -0.663594 -0.315928
-0.220634 -0.664453 -0.315916
-0.217951 -0.665312 -0.315901
-0.215262 -0.666133 -0.315883
-0.212569 -0.666953 -0.315862
-0.209869 -0.667754 -0.315838
-0.207166 -0.668535 -0.315811
-0.204457 -0.669297 -0.315781
-0.201743 -0.670039 -0.315747
-0.199024 -0.670762 -0.31571
-0.196302 -0.671484 -0.315671
-0.193575 -0.672168 -0.315628
-0.190843 -0.672871 -0.315582
-0.188108 -0.673516 -0.315533
-0.185368 -0.67416 -0.31548
-0.182624 -0.674785 -0.315425
-0.179877 -0.675391 -0.315366
-0.177126 -0.675977 -0.315305
-0.17437 -0.676543 -0.315239
-0.171578 -0.676953 -0.315108
-0.168783 -0.677344 -0.314973
-0.165986 -0.677715 -0.314835
-0.163187 -0.678066 -0.314694
-0.160387 -0.678418 -0.314549
-0.157584 -0.67873 -0.314401
-0.15478 -0.679043 -0.31425
-0.151974 -0.679316 -0.314096
-0.149167 -0.67957 -0.313938
-0.146361 -0.679824 -0.313781
-0.143682 -0.680684 -0.313901
-0.140997 -0.681504 -0.314018
-0.138306 -0.682305 -0.314132
-0.13561 -0.683105 -0.314243
-0.132909 -0.683867 -0.314352
-0.130202 -0.684629 -0.314457
-0.127491 -0.685371 -0.31456
-0.124748 -0.685957 -0.314594
-0.121999 -0.686504 -0.314619
-0.119247 -0.687051 -0.314642
-0.116491 -0.687559 -0.314662
-0.113733 -0.688066 -0.314678
-0.110971 -0.688535 -0.314692
-0.108206 -0.689004 -0.314703
-0.105438 -0.689453 -0.314711
-0.102667 -0.689883 -0.314716
-0.0998933 -0.690293 -0.314719
-0.0971176 -0.690684 -0.314718
-0.094339 -0.691055 -0.314715
-0.0915585 -0.691426 -0.314709
-0.0887758 -0.691758 -0.314699
-0.0859907 -0.69209 -0.314687
-0.0832039 -0.692402 -0.314672
-0.0804152 -0.692676 -0.314654
-0.0776248 -0.692949 -0.314634
-0.0748331 -0.693203 -0.31461
-0.0720396 -0.693437 -0.314584
-0.0692448 -0.693672 -0.314554
-0.0664488 -0.693867 -0.314522
-0.063652 -0.694043 -0.314487
-0.060854 -0.694219 -0.314449
-0.0580553 -0.694355 -0.314408
-0.0552557 -0.694492 -0.314364
-0.0524556 -0.694609 -0.314317
-0.049655 -0.694707 -0.314268
-0.0468541 -0.694785 -0.314216
-0.0440527 -0.694844 -0.314161
-0.0412515 -0.694902 -0.314102
-0.0384503 -0.694922 -0.314042
-0.0356491 -0.694941 -0.313978
-0.0328485 -0.694922 -0.313911
-0.0300481 -0.694902 -0.313842
-0.0272479 -0.694863 -0.31377
-0.0244487 -0.694785 -0.313695
-0.0216501 -0.694707 -0.313617
-0.0188525 -0.694609 -0.313536
-0.0160558 -0.694492 -0.313453
-0.0132602 -0.694375 -0.313367
-0.0104657 -0.694219 -0.313278
-0.00767258 -0.694043 -0.313186
-0.00488113 -0.693867 -0.313091
-0.00209122 -0.693672 -0.312994
0.000697174 -0.693555 -0.312944
0.00348633 -0.69377 -0.313043
0.00627716 -0.693965 -0.313139
0.00906952 -0.694141 -0.313232
0.0118631 -0.694297 -0.313323
0.0146584 -0.694434 -0.31341
0.0174544 -0.694551 -0.313495
0.0202516 -0.694668 -0.313577
0.0230499 -0.694746 -0.313656
0.0258487 -0.694824 -0.313733
0.0286484 -0.694863 -0.313806
0.0314485 -0.694902 -0.313877
0.0342493 -0.694922 -0.313945
0.03705 -0.694922 -0.31401
0.0398515 -0.694902 -0.314072
0.0426527 -0.694883 -0.314132
0.0454539 -0.694824 -0.314189
0.048255 -0.694746 -0.314242
0.0510558 -0.694668 -0.314293
0.053856 -0.694551 -0.314341
0.0566559 -0.694434 -0.314386
0.0594551 -0.694297 -0.314429
0.0622537 -0.694141 -0.314468
0.0650511 -0.693965 -0.314505
0.0678474 -0.69377 -0.314538
0.0706427 -0.693555 -0.314569
0.0734367 -0.69334 -0.314597
0.0762295 -0.693086 -0.314622
0.0790207 -0.692813 -0.314644
0.0818103 -0.692539 -0.314664
0.0845981 -0.692246 -0.31468
0.0873839 -0.691934 -0.314694
0.0901678 -0.691582 -0.314704
0.0929497 -0.69123 -0.314712
0.0957292 -0.690879 -0.314717
0.0985063 -0.690488 -0.314719
0.101281 -0.690078 -0.314718
0.104053 -0.689668 -0.314714
0.106823 -0.689219 -0.314707
0.109589 -0.688789 -0.314698
0.112352 -0.688301 -0.314686
0.115113 -0.687813 -0.31467
0.11787 -0.687305 -0.314652
0.120624 -0.686777 -0.314631
0.123374 -0.68625 -0.314607
0.126122 -0.685684 -0.31458
0.128847 -0.685019 -0.314509
0.131557 -0.684258 -0.314405
0.134261 -0.683496 -0.314298
0.136959 -0.682715 -0.314188
0.139652 -0.681914 -0.314075
0.14234 -0.681094 -0.31396
0.145022 -0.680254 -0.313842
0.147764 -0.679707 -0.313858
0.150571 -0.679453 -0.314017
0.153377 -0.67918 -0.314173
0.156182 -0.678887 -0.314326
0.158986 -0.678574 -0.314476
0.161788 -0.678242 -0.314622
0.164587 -0.677891 -0.314765
0.167385 -0.67752 -0.314904
0.170181 -0.677148 -0.315041
0.172975 -0.676738 -0.315174
0.175749 -0.67625 -0.315273
0.178502 -0.675664 -0.315336
0.181252 -0.675078 -0.315396
0.183997 -0.674473 -0.315453
0.186738 -0.673828 -0.315507
0.189476 -0.673184 -0.315557
0.19221 -0.67252 -0.315605
0.194939 -0.671836 -0.31565
0.197664 -0.671133 -0.315691
0.200385 -0.67041 -0.315729
0.203101 -0.669668 -0.315764
0.205812 -0.668926 -0.315796
0.208519 -0.668145 -0.315825
0.21122 -0.667363 -0.315851
0.213917 -0.666562 -0.315873
0.216608 -0.665723 -0.315893
0.219294 -0.664883 -0.315909
0.221974 -0.664023 -0.315922
0.224649 -0.663145 -0.315933
0.227318 -0.662266 -0.315939
0.229981 -0.661348 -0.315943
0.232638 -0.66041 -0.315944
0.235289 -0.659473 -0.315941
0.237934 -0.658516 -0.315936
0.240573 -0.65752 -0.315927
0.243205 -0.656523 -0.315915
0.245831 -0.655508 -0.3159
0.248449 -0.654492 -0.315882
0.251062 -0.653437 -0.315861
0.253667 -0.652363 -0.315837
0.256265 -0.651289 -0.315809
0.258856 -0.650215 -0.315779
0.26144 -0.649102 -0.315745
0.264016 -0.647969 -0.315708
0.266585 -0.646816 -0.315668
0.269146 -0.645645 -0.315625
0.2717 -0.644473 -0.315579
0.274245 -0.643262 -0.31553
0.276783 -0.642051 -0.315477
0.279313 -0.64082 -0.315422
0.281834 -0.63957 -0.315363
0.284347 -0.63832 -0.315301
0.286852 -0.637031 -0.315237
0.289348 -0.635742 -0.315169
0.291836 -0.634434 -0.315098
0.294315 -0.633105 -0.315024
0.296785 -0.631758 -0.314947
0.299246 -0.630391 -0.314867
0.301698 -0.629023 -0.314783
0.30414 -0.627637 -0.314697
0.306575 -0.62623 -0.314608
0.308999 -0.624805 -0.314516
0.311413 -0.623359 -0.31442
0.313819 -0.621914 -0.314322
0.316214 -0.620449 -0.314221
0.3186 -0.618965 -0.314116
0.320976 -0.617461 -0.314009
0.323342 -0.615957 -0.313899
0.325698 -0.614434 -0.313785
0.328044 -0.612891 -0.313669
0.330379 -0.611328 -0.31355
0.332704 -0.609766 -0.313427
0.335019 -0.608184 -0.313302
0.337323 -0.606582 -0.313174
0.339617 -0.604961 -0.313043
0.341899 -0.60334 -0.312909
0.344171 -0.60168 -0.312772
0.346433 -0.600039 -0.312632
0.348682 -0.598359 -0.31249
0.350922 -0.59668 -0.312344
0.35315 -0.59498 -0.312196
0.355366 -0.593262 -0.312045
0.357572 -0.591543 -0.311891
0.359766 -0.589805 -0.311734
0.361948 -0.588047 -0.311574
0.364119 -0.586289 -0.311411
0.366279 -0.584492 -0.311246
0.368426 -0.582715 -0.311078
0.370562 -0.580898 -0.310907
0.372686 -0.579082 -0.310733
0.374798 -0.577246 -0.310557
0.376898 -0.57541 -0.310378
0.49198 -0.74457 -0.40268
0.504942 -0.757539 -0.410794
0.518401 -0.770996 -0.419218
0.532383 -0.784961 -0.42797
0.50017 0.389219 -0.285965
0.496631 0.389687 -0.284836
0.493101 0.390117 -0.283708
0.489577 0.390547 -0.282581
0.486061 0.390937 -0.281457
0.482554 0.391328 -0.280334
0.479055 0.391699 -0.279214
0.475563 0.392031 -0.278096
0.472081 0.392363 -0.27698
0.468608 0.392676 -0.275866
0.465143 0.392969 -0.274754
0.461688 0.393242 -0.273644
0.458242 0.393496 -0.272537
0.454806 0.39373 -0.271433
0.45138 0.393945 -0.270331
0.447964 0.394141 -0.269232
0.444557 0.394336 -0.268135
0.441162 0.394512 -0.267042
0.437777 0.394648 -0.265951
0.434402 0.394785 -0.264863
0.431038 0.394902 -0.263778
0.427697 0.39502 -0.262702
0.424852 0.395566 -0.26193
0.422011 0.396094 -0.261157
0.419173 0.396621 -0.260386
0.416338 0.397109 -0.259615
0.413508 0.397598 -0.258844
0.410681 0.398086 -0.258074
0.407859 0.398555 -0.257305
0.405041 0.398984 -0.256538
0.402227 0.399414 -0.25577
0.399417 0.399824 -0.255003
0.396612 0.400234 -0.254238
0.393812 0.400605 -0.253473
0.391017 0.400977 -0.252709
0.388226 0.401328 -0.251947
0.385441 0.40168 -0.251185
0.382661 0.401992 -0.250424
0.38015 0.402578 -0.249838
0.378429 0.404004 -0.249772
0.376701 0.40541 -0.249705
0.374967 0.406816 -0.249638
0.373227 0.408203 -0.24957
0.371481 0.40959 -0.249501
0.369728 0.410957 -0.249431
0.367969 0.412324 -0.249361
0.366204 0.413691 -0.24929
0.364433 0.415039 -0.249218
0.362656 0.416387 -0.249145
0.360872 0.417715 -0.249072
0.359083 0.419023 -0.248997
0.357288 0.420352 -0.248923
0.355487 0.421641 -0.248847
0.353681 0.422949 -0.248771
0.351869 0.424238 -0.248693
0.350051 0.425508 -0.248616
0.348228 0.426777 -0.248537
0.346399 0.428027 -0.248458
0.344564 0.429297 -0.248378
0.342724 0.430527 -0.248297
0.340879 0.431758 -0.248215
0.339028 0.432988 -0.248133
0.337172 0.434199 -0.24805
0.335311 0.43541 -0.247966
0.333444 0.436602 -0.247882
0.331573 0.437793 -0.247797
0.329696 0.438965 -0.247711
0.327814 0.440137 -0.247625
0.325928 0.441289 -0.247538
0.324036 0.442441 -0.24745
0.32214 0.443574 -0.247361
0.320239 0.444707 -0.247272
0.318388 0.445898 -0.247225
0.31659 0.447187 -0.247223
0.314786 0.448437 -0.24722
0.312976 0.449707 -0.247216
0.31116 0.450937 -0.247212
0.309339 0.452187 -0.247207
0.307512 0.453418 -0.247201
0.305679 0.454629 -0.247195
0.30384 0.45584 -0.247188
0.301996 0.457051 -0.24718
0.300146 0.458242 -0.247172
0.29829 0.459434 -0.247163
0.296429 0.460605 -0.247153
0.294563 0.461777 -0.247142
0.292691 0.46293 -0.247131
0.290813 0.464082 -0.24712
0.288931 0.465215 -0.247107
0.287043 0.466348 -0.247094
0.28515 0.46748 -0.24708
0.283252 0.468594 -0.247065
0.281348 0.469707 -0.24705
0.27944 0.470801 -0.247034
0.277526 0.471875 -0.247018
0.275608 0.472969 -0.247001
0.273684 0.474023 -0.246982
0.271756 0.475098 -0.246964
0.269823 0.476152 -0.246945
0.267885 0.477187 -0.246924
0.265943 0.478223 -0.246904
0.263995 0.479238 -0.246882
0.262043 0.480254 -0.246861
0.260086 0.48127 -0.246838
0.258125 0.482285 -0.246814
0.256159 0.483262 -0.24679
0.254189 0.484238 -0.246766
0.252215 0.485215 -0.246741
0.250236 0.486172 -0.246714
0.248253 0.487109 -0.246688
0.246265 0.488047 -0.246661
0.244274 0.488984 -0.246633
0.242278 0.489902 -0.246604
0.240278 0.49082 -0.246574
0.238274 0.491719 -0.246544
0.236266 0.492617 -0.246514
0.234254 0.493496 -0.246482
0.232238 0.494375 -0.24645
0.230218 0.495234 -0.246418
0.228195 0.496094 -0.246384
0.226168 0.496934 -0.24635
0.224137 0.497773 -0.246316
0.222102 0.498594 -0.24628
0.220064 0.499414 -0.246245
0.218022 0.500215 -0.246208
0.215977 0.501016 -0.24617
0.213928 0.501797 -0.246133
0.211876 0.502578 -0.246094
0.209821 0.50334 -0.246055
0.207762 0.504102 -0.246015
0.2057 0.504844 -0.245975
0.203635 0.505586 -0.245933
0.201567 0.506309 -0.245892
0.199495 0.507031 -0.245849
0.197421 0.507734 -0.245806
0.195344 0.508438 -0.245762
0.193263 0.509121 -0.245718
0.19118 0.509805 -0.245673
0.189094 0.510469 -0.245627
0.187005 0.511133 -0.245581
0.184914 0.511777 -0.245535
0.182869 0.512559 -0.245553
0.180833 0.513359 -0.245588
0.178792 0.51416 -0.245621
0.176748 0.514941 -0.245655
0.1747 0.515723 -0.245688
0.172648 0.516484 -0.24572
0.170593 0.517246 -0.245752
0.168533 0.517988 -0.245783
0.166471 0.51873 -0.245814
0.164404 0.519453 -0.245844
0.162334 0.520176 -0.245874
0.160261 0.520879 -0.245903
0.158184 0.521582 -0.245932
0.156104 0.522266 -0.24596
0.154021 0.522949 -0.245988
0.151934 0.523633 -0.246014
0.149844 0.524297 -0.246041
0.14775 0.524941 -0.246067
0.145654 0.525586 -0.246092
0.143554 0.526211 -0.246117
0.141452 0.526836 -0.246142
0.139346 0.527461 -0.246165
0.137238 0.528066 -0.246189
0.135126 0.528652 -0.246211
0.133012 0.529238 -0.246233
0.130895 0.529824 -0.246255
0.128775 0.530391 -0.246276
0.126652 0.530957 -0.246296
0.124527 0.531504 -0.246316
0.122399 0.532031 -0.246335
0.120269 0.532559 -0.246354
0.118135 0.533086 -0.246373
0.116 0.533594 -0.24639
0.113862 0.534082 -0.246407
0.111721 0.53457 -0.246424
0.109578 0.535059 -0.24644
0.107433 0.535547 -0.246456
0.105286 0.535996 -0.24647
0.103137 0.536445 -0.246485
0.100985 0.536895 -0.246499
0.0988313 0.537324 -0.246512
0.0966756 0.537754 -0.246525
0.0945178 0.538164 -0.246537
0.0923579 0.538555 -0.246549
0.0901964 0.538945 -0.24656
0.088033 0.539336 -0.24657
0.0858676 0.539707 -0.24658
0.0837006 0.540059 -0.246589
0.081532 0.54041 -0.246598
