ply
format ascii 1.0
comment Created by Open3D
element vertex 1803
property float x
property float y
property float z
end_header
0.862002 -34.3012 0.665473
1.00004 -34.3029 0.66558
1.17078 -35.2885 0.684788
1.34959 -36.2775 0.704079
8.32305 -9.71236 0.248074
8.36078 -9.6774 0.248037
8.57479 2.05453 0.171013
8.53339 2.0809 0.170353
8.50921 2.11129 0.170039
8.49557 2.1442 0.169937
8.49075 2.17934 0.170014
8.49479 2.2168 0.170272
8.51251 2.25801 0.170808
8.16773 5.084 0.186593
8.12235 5.10117 0.186023
8.10032 5.13285 0.185989
8.0989 5.1777 0.186433
-3.87456 3.86289 0.106113
-3.86956 3.82701 0.105554
-3.87374 3.80045 0.105251
-3.8827 3.77873 0.10508
-3.89521 3.76055 0.105009
-3.91095 3.74549 0.105027
-3.93005 3.73359 0.105135
-3.95318 3.72547 0.105353
-3.98241 3.72291 0.105732
-4.02875 3.73598 0.106563
-4.04869 -23.3267 0.196772
-3.94971 -23.3122 0.196514
-3.86758 -23.3981 0.197106
-1.59601 -36.9093 0.30705
-1.40996 -35.9555 0.299065
-1.21647 -34.5699 0.287496
-1.06576 -34.1983 0.284368
-0.928115 -34.1966 0.28432
-0.790518 -34.1948 0.284277
-0.652978 -34.1931 0.284238
-0.515449 -34.1914 0.284204
-0.377959 -34.19 0.284177
-0.240508 -34.1891 0.28416
-0.103057 -34.1882 0.284146
0.0343652 -34.1885 0.284149
0.171816 -34.1894 0.284159
0.309268 -34.1902 0.284174
0.446748 -34.192 0.284201
0.584268 -34.1937 0.284232
0.721807 -34.1954 0.284268
0.859385 -34.197 0.284309
0.997002 -34.1987 0.284354
1.16184 -35.0189 0.29121
1.35045 -36.3002 0.301908
8.34433 -33.7755 0.289156
8.4853 -33.7627 0.289335
3.49505 -11.0429 0.0962672
3.49405 -10.8875 0.0950339
3.49368 -10.7377 0.0938484
3.49644 -10.6012 0.0927771
3.49646 -10.4597 0.0916612
3.49546 -10.3186 0.0905472
3.49709 -10.1884 0.0895268
3.49081 -10.0385 0.0883313
3.4786 -9.87527 0.0870187
3.47676 -9.74486 0.0859923
3.4766 -9.62201 0.0850307
3.4774 -9.50451 0.0841159
3.47438 -9.37918 0.083129
3.46748 -9.24631 0.0820743
3.46432 -9.12613 0.0811305
3.49891 -9.10674 0.0810823
3.54065 -9.10594 0.0812012
3.58254 -9.1051 0.0813214
3.62454 -9.10428 0.0814436
3.66668 -9.10346 0.0815674
3.70924 -9.10332 0.0816995
3.75204 -9.10348 0.0818355
3.79525 -9.1043 0.0819789
3.83947 -9.10709 0.0821428
3.88389 -9.10994 0.0823085
3.92846 -9.11279 0.0824762
3.97297 -9.11506 0.0826408
4.01684 -9.11549 0.0827904
4.06016 -9.11432 0.0829271
4.10318 -9.11217 0.0830572
4.14635 -9.11004 0.0831891
4.18965 -9.10791 0.0833226
4.23309 -9.10574 0.0834579
4.27697 -9.10424 0.0836011
4.32174 -9.10426 0.0837601
4.36717 -9.10527 0.0839304
4.41278 -9.10633 0.0841025
4.45859 -9.10736 0.0842772
4.50459 -9.1084 0.084454
8.24772 -9.70316 0.105842
8.26804 -9.64818 0.105604
8.30528 -9.61318 0.105585
8.3588 -9.59686 0.105775
8.59957 2.06047 0.0734959
8.5412 2.08281 0.0730679
8.5077 2.11092 0.0728534
8.48522 2.14158 0.0727341
8.47077 2.1742 0.0726845
8.46363 2.20867 0.0726988
8.46457 2.24529 0.072784
8.47681 2.28506 0.0729674
8.51694 2.33264 0.0733931
8.19626 5.05615 0.0800398
8.13121 5.06127 0.0796028
8.09617 5.08473 0.0794592
8.07441 5.11645 0.0794469
8.06486 5.15596 0.0795561
8.07453 5.20797 0.0798575
8.46805 25.3323 0.221995
8.31283 25.2045 0.22058
8.17679 25.1312 0.219649
8.04344 25.0633 0.218771
7.91339 25.0031 0.217967
7.78561 24.9475 0.217208
7.65872 24.8924 0.216457
7.5327 24.8376 0.215716
7.40753 24.7832 0.214983
7.28321 24.7291 0.214258
7.15973 24.6754 0.213542
7.03735 24.6231 0.212843
6.91614 24.5724 0.212162
6.79568 24.522 0.211489
6.67609 24.4723 0.210828
6.55754 24.4239 0.210183
6.43972 24.376 0.209545
6.3226 24.3283 0.208915
6.21274 24.3065 0.208511
6.10696 24.2994 0.208239
6.00145 24.2922 0.207967
5.8969 24.2879 0.207728
5.81407 24.3737 0.20826
5.7335 24.4714 0.208896
5.65673 24.5884 0.209698
5.58789 24.7439 0.210832
5.51849 24.9021 0.211989
3.98314 18.3222 0.155837
3.8899 18.2464 0.155058
3.7976 18.1713 0.15429
3.70588 18.0955 0.153518
3.62186 18.0541 0.153042
3.53835 18.0131 0.152572
3.45537 17.9723 0.152108
3.37093 17.9213 0.151561
3.29406 17.9087 0.151341
3.21545 17.8852 0.151031
3.13718 17.8617 0.150726
3.05919 17.8384 0.150424
2.98339 17.8262 0.150219
2.909 17.8215 0.150079
2.83474 17.8167 0.149942
2.76062 17.8119 0.149807
2.68663 17.8072 0.149675
2.61275 17.8025 0.149546
2.55304 17.896 0.150244
2.49727 18.0229 0.151224
2.44062 18.1505 0.152211
2.38322 18.2797 0.153214
2.32507 18.4107 0.154231
2.26753 18.5549 0.155362
2.21006 18.7089 0.156575
2.15167 18.8652 0.15781
2.09235 19.0241 0.159068
2.03208 19.1855 0.160348
1.97079 19.3492 0.161648
1.90879 19.5186 0.162997
1.84606 19.6941 0.1644
1.78242 19.8746 0.165846
1.71784 20.0608 0.167341
1.65934 20.3389 0.169592
-6.15226 18.2823 0.160321
-6.21438 18.2242 0.160029
-3.90621 3.86324 0.0456613
-3.89922 3.82545 0.0453995
-3.90506 3.80049 0.0452892
-3.9166 3.78119 0.0452464
-3.93268 3.76629 0.0452568
-3.95231 3.75477 0.0453088
-3.97318 3.74432 0.0453752
-4.00458 3.74361 0.0455615
-4.0928 3.79539 0.0463913
-4.11294 3.78342 0.0464467
-4.14394 3.78127 0.0466248
-4.2316 -23.2686 -0.0655183
-4.11833 -23.1746 -0.0652068
-4.02182 -23.1719 -0.065153
-3.93405 -23.2199 -0.0652429
-3.85051 -23.2949 -0.0654097
-3.76686 -23.3724 -0.0655843
-3.69196 -23.5089 -0.0659253
-4.45695 -42.9029 -0.119494
-4.27181 -42.7938 -0.119141
-4.0994 -42.8069 -0.119131
-4.23495 -50.6527 -0.140813
-4.03555 -50.7227 -0.140962
-4.02986 -53.3638 -0.148255
-4.43634 -65.7861 -0.182662
-4.16101 -65.6324 -0.182187
-4.35298 -73.3276 -0.203498
-4.33105 -78.2765 -0.217182
-4.01545 -78.2757 -0.217133
-1.59703 -36.9333 -0.102412
-1.40419 -35.8083 -0.0992778
-1.21573 -34.5489 -0.0957706
-1.06444 -34.1556 -0.094668
-0.927002 -34.1548 -0.0946547
-0.78959 -34.154 -0.0946429
-0.652227 -34.1532 -0.0946324
-0.514863 -34.1523 -0.0946237
-0.377549 -34.1514 -0.0946161
-0.240244 -34.1505 -0.0946103
-0.102949 -34.1496 -0.0946059
0.0343262 -34.15 -0.0946063
0.171611 -34.1508 -0.09461
0.308916 -34.1517 -0.094615
0.446221 -34.1525 -0.0946214
0.583574 -34.1534 -0.0946295
0.720928 -34.1541 -0.094639
0.85832 -34.1549 -0.0946498
0.995732 -34.1556 -0.0946622
1.16233 -35.0342 -0.0971103
1.35129 -36.323 -0.100696
3.86776 -93.814 -0.260115
4.00017 -88.3908 -0.245121
4.62361 -93.8153 -0.260213
3.88625 -55.9527 -0.15538
8.421 -89.836 -0.249965
8.08101 -82.6329 -0.230011
8.10046 -79.5299 -0.221463
8.42351 -79.5291 -0.221553
8.35706 -62.1502 -0.173725
8.60259 -62.0855 -0.173639
8.07266 -50.7376 -0.142327
8.14672 -49.9093 -0.140094
8.33407 -49.7971 -0.139872
8.37203 -46.5672 -0.131074
8.54231 -46.4417 -0.130816
8.74799 -46.5082 -0.131102
8.43422 -39.5625 -0.112063
8.57294 -39.4351 -0.111799
8.74512 -39.4622 -0.111975
8.17363 -33.6652 -0.0959726
8.3 -33.5961 -0.0958697
8.44608 -33.6066 -0.0959959
8.59591 -33.6303 -0.0961615
3.44841 -11.208 -0.0324861
3.44885 -11.0512 -0.0320712
3.4472 -10.8917 -0.0316486
3.43927 -10.7167 -0.03118
3.44263 -10.5808 -0.0308246
3.44289 -10.4388 -0.0304511
3.4452 -10.3064 -0.0301044
3.45352 -10.1947 -0.0298199
3.45312 -10.0604 -0.0294679
3.43916 -9.88998 -0.0290077
3.43301 -9.74586 -0.028625
3.43334 -9.62314 -0.0283049
3.44002 -9.52078 -0.0280432
3.44273 -9.40977 -0.0277579
3.4362 -9.27619 -0.0274042
3.43067 -9.14816 -0.027067
3.43751 -9.05551 -0.0268333
3.47935 -9.05584 -0.0268755
3.52132 -9.05617 -0.0269182
3.56312 -9.05572 -0.0269592
3.60486 -9.05482 -0.0269994
3.64674 -9.05393 -0.0270404
3.68893 -9.05348 -0.0270828
3.73146 -9.05352 -0.0271277
3.77411 -9.05355 -0.0271732
3.81692 -9.05361 -0.0272192
3.85988 -9.05365 -0.0272656
3.903 -9.05371 -0.0273129
3.94626 -9.05379 -0.0273608
3.98967 -9.05383 -0.0274092
4.03318 -9.05377 -0.0274579
4.07683 -9.05367 -0.0275069
4.12063 -9.05355 -0.0275571
4.1646 -9.05346 -0.027607
4.20874 -9.05336 -0.0276585
4.25304 -9.05326 -0.0277098
4.29751 -9.0532 -0.0277625
4.34228 -9.05336 -0.0278162
4.38758 -9.0543 -0.0278732
4.43307 -9.05523 -0.0279306
4.47851 -9.05568 -0.0279877
4.5237 -9.05527 -0.0280429
4.56907 -9.05486 -0.0280981
8.12969 -9.64258 -0.03494
8.14776 -9.58557 -0.0348518
8.18054 -9.54609 -0.0348276
8.22518 -9.52043 -0.0348544
8.28522 -9.51238 -0.0349466
8.35647 -9.51666 -0.0350854
8.42839 -9.52109 -0.0352264
8.52723 2.11576 -0.0243394
8.44932 2.13254 -0.0241412
8.42354 2.16207 -0.0240923
8.41704 2.1965 -0.0240987
8.43292 2.23689 -0.0241698
8.46528 2.28195 -0.0242885
8.49472 2.32654 -0.0243997
8.34939 5.10441 -0.0271104
8.29931 5.11971 -0.0270145
8.27547 5.15105 -0.0270041
8.14139 5.11312 -0.0266333
8.11606 5.14283 -0.0266179
8.11416 5.18746 -0.0266798
26.1455 31.2652 -0.112908
25.9916 31.3363 -0.112787
25.9604 31.556 -0.113201
25.1993 30.883 -0.110423
25.1131 31.0313 -0.110591
23.5877 31.1432 -0.108229
23.4155 31.1755 -0.108014
23.294 31.2748 -0.108032
13.9715 31.0274 -0.094268
13.9367 31.2854 -0.094881
8.94438 25.3919 -0.0745805
8.80224 25.3126 -0.0742421
8.66723 25.2512 -0.0739592
8.53327 25.1902 -0.0736795
8.39965 25.1277 -0.0733975
8.26506 25.0596 -0.0731009
8.13155 24.9922 -0.0728082
8.00099 24.9311 -0.072536
7.87279 24.8749 -0.0722798
7.74551 24.8191 -0.0720267
7.6194 24.7646 -0.0717789
7.49415 24.7105 -0.0715343
7.36976 24.6568 -0.0712923
7.24619 24.6034 -0.0710532
7.1229 24.5485 -0.0708115
7.00027 24.4934 -0.0705707
6.87981 24.4433 -0.0703461
6.76011 24.3936 -0.0701245
6.64129 24.3446 -0.0699063
6.52344 24.2969 -0.0696933
6.40633 24.2496 -0.0694832
6.29248 24.2124 -0.0693048
6.18109 24.1827 -0.0691475
6.07589 24.1757 -0.0690576
5.97362 24.1796 -0.0689984
5.87207 24.1857 -0.0689479
5.78823 24.2654 -0.0691086
5.70433 24.3469 -0.0692747
4.16777 18.1162 -0.0514986
4.07442 18.0421 -0.051241
3.98158 17.9668 -0.0509808
3.88907 17.8896 -0.0507166
3.80141 17.8313 -0.050508
3.71818 17.7914 -0.0503522
3.63104 17.73 -0.0501356
3.54067 17.6494 -0.0498682
3.45968 17.6125 -0.0497241
3.38615 17.6123 -0.0496844
3.31275 17.6121 -0.049646
3.23831 17.6056 -0.0495908
3.16114 17.583 -0.0494911
3.08428 17.5606 -0.0493925
3.01107 17.5578 -0.0493501
2.93804 17.5551 -0.0493091
2.86511 17.5525 -0.0492691
2.79203 17.5483 -0.0492252
2.71905 17.5438 -0.0491818
2.64622 17.5394 -0.0491389
2.58531 17.6155 -0.049323
2.53123 17.7431 -0.0496512
2.47722 17.8782 -0.0500009
2.42242 18.0152 -0.0503566
2.36535 18.1427 -0.0506859
2.30752 18.2718 -0.0510202
2.24892 18.4026 -0.0513599
2.19154 18.5522 -0.0517522
2.13329 18.704 -0.0521515
2.07431 18.8601 -0.052563
2.01442 19.0188 -0.0529822
1.95356 19.1801 -0.0534093
1.89149 19.3416 -0.0538376
1.82819 19.5035 -0.0542674
1.76485 19.6787 -0.0547345
1.70048 19.8579 -0.0552136
1.63525 20.0437 -0.0557112
1.57122 20.2636 -0.0563068
0.17165 13.1376 -0.0363982
0.117178 12.9549 -0.0358903
0.0639648 12.728 -0.0352606
0.0125684 12.5089 -0.0346533
-0.0380273 12.6156 -0.0349492
-0.0903125 12.8384 -0.0355669
-0.144268 13.0501 -0.0361546
-6.20935 18.4519 -0.0539343
-6.24143 18.3035 -0.0535735
-6.32427 18.3052 -0.0536523
-6.3791 18.2262 -0.0534956
-6.45077 18.196 -0.0534827
-3.91231 3.80756 -0.0151239
-3.90831 3.7732 -0.0150497
-3.85078 3.68787 -0.014771
-3.84615 3.65391 -0.0146967
-3.85443 3.6324 -0.0146724
-3.86901 3.61687 -0.0146725
-3.89 3.6073 -0.014697
-3.92438 3.60996 -0.0147719
-4.12621 3.76512 -0.0154745
-4.1672 3.77191 -0.0155713
-4.22808 -23.2493 -0.327346
-4.12595 -23.2175 -0.326662
-4.02314 -23.1795 -0.325898
-3.92401 -23.1605 -0.325407
-3.83492 -23.2006 -0.325751
-3.74833 -23.2574 -0.326334
-3.66971 -23.3672 -0.327664
-4.44346 -42.7729 -0.595707
-4.27648 -42.8407 -0.596406
-4.10641 -42.88 -0.59672
-4.22764 -50.5652 -0.702905
-4.02969 -50.6491 -0.703841
-4.03816 -53.4737 -0.742861
-3.83211 -53.6144 -0.744596
-1.5981 -36.9576 -0.512435
-1.40154 -35.7407 -0.495485
-1.21275 -34.464 -0.477713
-1.06322 -34.1168 -0.472837
-0.925937 -34.116 -0.472771
-0.788682 -34.1152 -0.472712
-0.651475 -34.1144 -0.472661
-0.514277 -34.1136 -0.472618
-0.377119 -34.1128 -0.472582
-0.239961 -34.112 -0.472554
-0.071416 -23.6893 -0.328161
0.0237891 -23.661 -0.327767
0.171426 -34.1123 -0.472552
0.308574 -34.113 -0.472576
0.445723 -34.1138 -0.472607
0.58291 -34.1146 -0.472646
0.720117 -34.1153 -0.472692
0.857354 -34.1161 -0.472747
0.994609 -34.1168 -0.472809
1.16054 -34.9799 -0.484831
1.34956 -36.2765 -0.502874
4.00567 -88.5125 -1.22739
4.64841 -94.3183 -1.30816
3.88515 -55.9371 -0.776744
4.10919 -55.9102 -0.776593
8.36674 -62.2222 -0.869699
8.61498 -62.175 -0.869517
3.40726 -23.8837 -0.334203
3.4163 -23.2774 -0.325909
3.42174 -22.6797 -0.317729
3.46078 -22.3294 -0.313015
3.54791 -22.299 -0.312786
3.63719 -22.2825 -0.312757
3.72783 -22.2742 -0.312849
3.81905 -22.2691 -0.312989
3.911 -22.2676 -0.313187
4.0031 -22.2662 -0.313391
4.09574 -22.2671 -0.313633
4.18854 -22.2681 -0.313881
4.28232 -22.2735 -0.314198
4.37682 -22.2815 -0.314556
4.47404 -22.3021 -0.315099
8.29972 -39.7138 -0.562027
8.43398 -39.5613 -0.560345
8.58322 -39.4824 -0.559711
8.72633 -39.3774 -0.558716
8.89824 -39.4026 -0.559576
8.18693 -33.7201 -0.480683
8.31962 -33.6755 -0.48052
8.46559 -33.6842 -0.481126
8.62988 -33.7632 -0.482746
3.40137 -11.2153 -0.16235
3.40244 -11.0586 -0.160278
3.39992 -10.8944 -0.158095
3.39166 -10.7162 -0.155705
3.38916 -10.5606 -0.153641
3.39239 -10.4264 -0.151887
3.40128 -10.3127 -0.150427
3.41001 -10.2011 -0.148998
3.4154 -10.0822 -0.147462
3.39969 -9.90463 -0.145063
3.38937 -9.74684 -0.14295
3.39414 -9.63549 -0.141515
3.40261 -9.53701 -0.140269
3.41093 -9.44025 -0.139047
3.40482 -9.30611 -0.137272
3.39871 -9.17496 -0.135538
3.39447 -9.05162 -0.133914
3.41824 -9.00478 -0.133425
3.45982 -9.00502 -0.133634
3.50153 -9.00527 -0.133845
3.54337 -9.00555 -0.13406
3.58534 -9.00578 -0.134277
3.62701 -9.00492 -0.13448
3.66884 -9.00418 -0.134688
3.71109 -9.00412 -0.13491
3.75349 -9.00408 -0.135134
3.79603 -9.00404 -0.135361
3.83871 -9.00398 -0.135591
3.88153 -9.00393 -0.135824
3.92452 -9.00391 -0.136061
3.96766 -9.00387 -0.136301
4.01092 -9.00379 -0.136542
4.05429 -9.00361 -0.136786
4.09781 -9.00342 -0.137031
4.1415 -9.00324 -0.137281
4.18535 -9.00307 -0.137534
4.22937 -9.00289 -0.13779
4.27354 -9.00272 -0.138049
4.31789 -9.00254 -0.138311
4.36265 -9.00285 -0.138585
4.40782 -9.00367 -0.138869
4.45253 -9.00318 -0.139136
4.49741 -9.00266 -0.139407
4.54247 -9.00215 -0.13968
4.58771 -9.00164 -0.139957
7.96665 -9.68379 -0.173708
7.98688 -9.62924 -0.173303
8.01283 -9.58187 -0.173029
8.03877 -9.53475 -0.17276
8.06504 -9.48822 -0.172504
8.10002 -9.45211 -0.172438
8.14718 -9.43016 -0.172633
8.21275 -9.42916 -0.173218
8.33172 -9.48848 -0.174921
8.40646 -9.49631 -0.175688
8.48195 -9.50434 -0.176465
8.57076 -9.52646 -0.177515
8.44529 2.0235 -0.120301
8.39285 2.04664 -0.11967
8.36023 2.07434 -0.119323
8.33801 2.10443 -0.119126
8.32345 2.13639 -0.119039
8.31568 2.17006 -0.119052
8.31478 2.20557 -0.119165
8.32193 2.2433 -0.119396
8.34064 2.28436 -0.119795
8.38605 2.33307 -0.120581
8.47846 2.39555 -0.122047
8.57911 2.46127 -0.123637
8.34747 5.10322 -0.135532
8.23923 5.08266 -0.134105
8.17434 5.08811 -0.133381
8.13275 5.1077 -0.133036
8.10234 5.13414 -0.132875
8.08048 5.16594 -0.132856
8.06681 5.20299 -0.132974
8.063 5.24656 -0.133258
8.05097 5.2849 -0.133409
8.03626 5.32158 -0.133519
25.9988 31.345 -0.564135
25.3023 30.7561 -0.551701
25.2584 30.9555 -0.553452
25.1266 31.0479 -0.553294
23.4302 31.195 -0.540448
23.3044 31.2887 -0.540445
23.2645 31.4987 -0.542452
13.9942 31.0778 -0.472143
13.9045 31.2131 -0.473346
9.77128 25.7407 -0.381404
9.59656 25.59 -0.378597
9.45038 25.5117 -0.376873
9.30817 25.4413 -0.375276
9.1615 25.3559 -0.37347
9.02182 25.2868 -0.371916
8.88573 25.2254 -0.370484
8.75071 25.1645 -0.369069
8.61671 25.1039 -0.367671
8.48371 25.0439 -0.366288
8.35171 24.9843 -0.364923
8.21941 24.9212 -0.363516
8.08845 24.8596 -0.362141
7.96016 24.8038 -0.360859
7.83276 24.7484 -0.359591
7.70626 24.6933 -0.358338
7.58064 24.6386 -0.357099
7.456 24.5846 -0.35588
7.33235 24.5316 -0.354683
7.20901 24.4771 -0.353473
7.08629 24.4223 -0.352267
6.96441 24.3679 -0.351076
6.84386 24.3155 -0.349922
6.72499 24.2669 -0.34883
6.60688 24.2186 -0.347751
6.48969 24.1712 -0.346694
6.37613 24.1353 -0.345806
6.26395 24.1026 -0.344976
6.15573 24.0834 -0.344344
6.05261 24.083 -0.343989
5.95068 24.0867 -0.343696
4.34928 17.9137 -0.25536
4.2553 17.8391 -0.254051
4.16168 17.7627 -0.252723
4.06905 17.6871 -0.251414
3.97749 17.6129 -0.250128
3.88955 17.5515 -0.249034
3.79841 17.4725 -0.247693
3.70823 17.3943 -0.24637
3.619 17.3169 -0.245065
3.54567 17.3132 -0.244811
3.47322 17.3132 -0.244612
3.40088 17.3132 -0.244417
3.32865 17.3132 -0.244226
3.25653 17.3132 -0.244039
3.1844 17.3126 -0.243848
3.11014 17.2993 -0.243483
3.03799 17.297 -0.243276
2.96595 17.2946 -0.243073
2.89403 17.2922 -0.242874
2.82224 17.2899 -0.24268
2.75054 17.2875 -0.242489
2.67873 17.2836 -0.242282
2.61864 17.3566 -0.243156
2.56274 17.4618 -0.244482
2.48445 17.4153 -0.24369
2.41413 17.4229 -0.243659
2.34421 17.4336 -0.243675
2.27441 17.4452 -0.243707
2.29024 18.135 -0.253212
2.23195 18.2639 -0.254885
2.17357 18.4001 -0.256662
2.11566 18.5496 -0.258626
2.05686 18.7013 -0.260625
1.99712 18.8555 -0.262659
1.93659 19.0135 -0.264749
1.87515 19.1746 -0.266885
1.81231 19.334 -0.269002
1.74834 19.4946 -0.271135
1.68382 19.6634 -0.273386
1.61884 19.8424 -0.275783
1.55285 20.0266 -0.278254
1.48915 20.2616 -0.281433
0.586553 11.9013 -0.165064
0.535244 11.827 -0.164003
0.48748 11.824 -0.163933
0.439766 11.8211 -0.163866
0.391973 11.8146 -0.163753
0.344189 11.8063 -0.163618
0.296484 11.7981 -0.163486
0.248848 11.7898 -0.163356
0.201309 11.7816 -0.16323
0.153828 11.7734 -0.163106
0.106416 11.7652 -0.162985
0.059082 11.7569 -0.162867
0.0118066 11.7487 -0.162751
-0.0354297 11.7528 -0.162807
-0.0827344 11.761 -0.162924
-0.130107 11.7692 -0.163044
-0.177549 11.7774 -0.163166
-0.225068 11.7856 -0.163292
-0.272666 11.7939 -0.163419
-0.320322 11.8021 -0.163551
-0.368066 11.8104 -0.163684
-0.415889 11.8186 -0.163821
-0.463613 11.8225 -0.163899
-0.511348 11.8255 -0.163967
-0.559131 11.8285 -0.164039
-0.615391 11.9961 -0.166395
-7.17299 23.148 -0.335704
-7.17365 22.8252 -0.331437
-7.18888 22.5563 -0.32795
-7.22991 22.3737 -0.325715
-7.31101 22.3177 -0.325324
-6.14215 18.4979 -0.270002
-6.15109 18.2788 -0.267162
-6.21307 18.2203 -0.266671
-6.28745 18.1987 -0.266721
-6.371 18.203 -0.267159
-6.4278 18.1313 -0.266483
-8.01623 22.3265 -0.328612
-3.84295 3.83139 -0.0751726
-3.83522 3.79305 -0.0747224
-3.83598 3.76342 -0.0744418
-3.84121 3.73836 -0.0742511
-3.84958 3.7165 -0.0741235
-3.82604 3.66416 -0.0733859
-3.82976 3.63832 -0.0731763
-3.8403 3.6191 -0.0730992
-3.85585 3.60459 -0.0731186
-3.87664 3.5949 -0.0732382
-3.90573 3.59279 -0.0735144
-3.97709 3.62904 -0.0745824
-4.01071 3.63027 -0.0749388
-4.0631 3.64809 -0.0756427
-4.12708 -23.2239 -0.58824
-4.01648 -23.1411 -0.585729
-3.91853 -23.1282 -0.585001
-3.82891 -23.1642 -0.585516
-3.7531 -23.2871 -0.588235
-4.43351 -42.6771 -1.07002
-4.28399 -42.9159 -1.07557
-4.11851 -43.0066 -1.07742
-0.552734 -10.7747 -0.269058
-0.504853 -10.6805 -0.266652
-0.460801 -10.6567 -0.266009
-0.415742 -10.6019 -0.264596
-0.372471 -10.5852 -0.264141
-0.329775 -10.5817 -0.26402
-0.287109 -10.5783 -0.263902
-0.244473 -10.5748 -0.263789
-0.201875 -10.5713 -0.26368
-0.159316 -10.5678 -0.263574
-0.116787 -10.5643 -0.263472
-0.0742871 -10.5607 -0.263373
-0.0318262 -10.5571 -0.263279
0.0106152 -10.5559 -0.263247
0.0530664 -10.5588 -0.263323
0.0955469 -10.5624 -0.263419
0.138057 -10.5659 -0.26352
0.180596 -10.5695 -0.263624
0.223174 -10.573 -0.263732
0.265791 -10.5765 -0.263844
0.308437 -10.58 -0.263959
0.351143 -10.5834 -0.264079
0.393857 -10.5869 -0.264202
0.438242 -10.6297 -0.265312
0.482783 -10.6679 -0.266311
0.527178 -10.6967 -0.267083
3.97255 -57.1951 -1.42979
3.18009 -24.3918 -0.61344
3.28726 -24.4468 -0.615152
3.29376 -23.7713 -0.598482
3.29373 -23.088 -0.581606
3.29285 -22.4364 -0.565521
3.33795 -22.1242 -0.557986
3.42378 -22.0907 -0.557485
3.51255 -22.0767 -0.557483
3.60203 -22.0671 -0.557601
3.69186 -22.0592 -0.557773
3.78242 -22.0555 -0.558058
3.87409 -22.0574 -0.558495
3.96567 -22.058 -0.55891
4.05734 -22.0583 -0.559327
4.14862 -22.0559 -0.559685
4.24001 -22.0535 -0.56005
4.33323 -22.0596 -0.560643
4.42693 -22.0672 -0.561285
4.52172 -22.0791 -0.562046
4.61745 -22.0943 -0.5629
8.4698 -39.7294 -1.01305
8.59346 -39.5295 -1.00883
8.75075 -39.4877 -1.00865
8.3223 -33.6863 -0.86534
8.47122 -33.7066 -0.866729
3.33535 -11.3247 -0.294413
3.34001 -11.1745 -0.290856
3.34482 -11.0289 -0.287413
3.34653 -10.8769 -0.2838
3.33906 -10.6994 -0.279517
3.33436 -10.5352 -0.275575
3.34501 -10.423 -0.272991
3.35547 -10.313 -0.270459
3.36574 -10.2049 -0.267978
3.37551 -10.0979 -0.265522
3.36019 -9.91926 -0.261178
3.34688 -9.7508 -0.257095
3.35504 -9.64809 -0.25474
3.36304 -9.54721 -0.252432
3.37091 -9.44816 -0.250169
3.36688 -9.31836 -0.247088
3.36074 -9.18563 -0.243925
3.35722 -9.06295 -0.241024
3.35843 -8.95555 -0.238525
3.39867 -8.9532 -0.238824
3.44018 -8.95389 -0.239209
3.48181 -8.95455 -0.239599
3.52353 -8.95512 -0.239991
3.56523 -8.95529 -0.240378
3.60707 -8.95545 -0.240769
3.64896 -8.95541 -0.241161
3.69095 -8.95527 -0.241555
3.73309 -8.95514 -0.241954
3.77536 -8.955 -0.242359
3.81776 -8.95488 -0.242769
3.86032 -8.95475 -0.243183
3.90303 -8.95461 -0.243604
3.94588 -8.95447 -0.24403
3.98888 -8.95432 -0.244461
4.03199 -8.9541 -0.244895
4.07524 -8.95385 -0.245334
4.11865 -8.95357 -0.245779
4.16223 -8.95332 -0.246229
4.20595 -8.95307 -0.246685
4.24984 -8.95277 -0.247146
4.2939 -8.95252 -0.247613
4.33812 -8.95225 -0.248086
4.38245 -8.95184 -0.248561
4.42672 -8.95096 -0.249029
4.47097 -8.94971 -0.249493
4.51538 -8.94848 -0.249962
4.55997 -8.94723 -0.250437
4.60476 -8.94602 -0.250919
8.07137 -9.81109 -0.31683
8.04466 -9.69891 -0.314248
8.06316 -9.64205 -0.313455
8.07658 -9.57957 -0.312476
8.10559 -9.53594 -0.312113
8.13809 -9.49654 -0.311892
8.1956 -9.48619 -0.312632
8.27524 -9.50092 -0.314211
8.32506 -9.48088 -0.314653
8.37502 -9.4608 -0.315101
8.42846 -9.44439 -0.31568
8.49752 -9.44508 -0.316842
8.61792 -9.5018 -0.319905
8.50083 2.0007 -0.217789
8.41188 2.01549 -0.215716
8.36895 2.04082 -0.214824
8.33965 2.06922 -0.214283
8.31895 2.09963 -0.213967
8.30499 2.13164 -0.213827
8.29716 2.16521 -0.213847
8.29549 2.20043 -0.21403
8.30085 2.23762 -0.214399
8.31549 2.27748 -0.215012
8.3463 2.32201 -0.216048
8.42948 2.3817 -0.218448
8.54081 2.45027 -0.221586
8.41062 5.09549 -0.245238
8.26853 5.05496 -0.241685
8.18746 5.05074 -0.239907
8.13855 5.06584 -0.239069
8.10186 5.0883 -0.23859
8.07339 5.1158 -0.238355
8.0518 5.14758 -0.238327
8.03689 5.18367 -0.238501
8.02951 5.22475 -0.238903
8.03238 5.2727 -0.239617
8.00284 5.29947 -0.239369
7.99167 5.33842 -0.239675
26.0043 31.3516 -1.01581
25.5431 31.0487 -1.00266
25.1363 31.0599 -0.99646
23.4503 31.2218 -0.973785
14.2005 31.2003 -0.854886
13.9938 31.077 -0.849958
10.2647 25.7833 -0.692077
10.1082 25.6901 -0.68848
9.95854 25.6115 -0.685294
9.81546 25.5471 -0.68251
9.67179 25.4787 -0.679635
9.53263 25.4196 -0.677033
9.39515 25.3626 -0.674505
9.25885 25.3065 -0.672017
9.12372 25.2513 -0.669572
8.98907 25.1951 -0.667118
8.85421 25.1359 -0.664603
8.72036 25.0772 -0.662117
8.5875 25.0188 -0.65966
8.45562 24.961 -0.657233
8.32471 24.9035 -0.654833
8.19439 24.8454 -0.652433
8.06372 24.7837 -0.649957
7.93487 24.725 -0.647577
7.8076 24.6688 -0.645278
7.68121 24.613 -0.643005
7.55573 24.5576 -0.640759
7.4311 24.5026 -0.638538
7.30583 24.4429 -0.636211
7.18447 24.3938 -0.634179
7.0642 24.3461 -0.632195
6.94219 24.2902 -0.630012
6.82014 24.2312 -0.627768
4.71426 17.0112 -0.440222
4.60929 16.896 -0.436758
4.50013 16.761 -0.432794
4.38896 16.6133 -0.428522
4.30675 16.5716 -0.426998
4.2254 16.5312 -0.425516
4.14749 16.5027 -0.424349
4.07001 16.4743 -0.423194
3.99295 16.446 -0.422052
3.91689 16.4204 -0.420987
3.84181 16.3974 -0.419998
3.76707 16.3745 -0.41902
3.69274 16.352 -0.418061
3.62097 16.3396 -0.417368
3.54942 16.3271 -0.416683
3.47927 16.3203 -0.416146
3.41447 16.3381 -0.416249
3.34965 16.356 -0.416358
3.28479 16.3739 -0.416474
3.21882 16.3864 -0.416459
3.15256 16.3972 -0.41641
3.08629 16.4081 -0.416368
3.02005 16.419 -0.416332
2.956 16.442 -0.41661
2.90592 16.5451 -0.418923
2.85528 16.6493 -0.421267
2.80434 16.7563 -0.423687
2.75243 16.8622 -0.426083
2.69966 16.9677 -0.428468
2.64906 17.0922 -0.431339
2.59595 17.2062 -0.433949
2.54136 17.316 -0.436459
2.48869 17.445 -0.439454
2.43529 17.5757 -0.442497
2.38114 17.7082 -0.44559
2.32623 17.8427 -0.448733
2.27055 17.979 -0.451928
2.21405 18.1173 -0.455177
2.15654 18.2559 -0.458438
2.09832 18.3975 -0.461779
2.03986 18.5469 -0.465319
1.98051 18.6986 -0.46892
1.9202 18.8526 -0.472586
1.85897 19.009 -0.476316
1.79681 19.1686 -0.48013
1.73326 19.3264 -0.483904
1.66903 19.4907 -0.487846
1.60445 19.6661 -0.49207
1.53771 19.8314 -0.496048
1.47145 20.0207 -0.500635
0.6846 11.9378 -0.298197
0.628027 11.7795 -0.294179
0.579443 11.7572 -0.293561
0.531943 11.7543 -0.293432
0.344922 8.36621 -0.208817
0.309912 8.3308 -0.2079
0.275225 8.29568 -0.206994
0.24084 8.26084 -0.206099
0.206729 8.22625 -0.205214
0.173389 8.21432 -0.204897
0.140264 8.20885 -0.204745
0.107187 8.20393 -0.20461
0.0741699 8.19897 -0.204477
0.0411816 8.194 -0.204347
0.00823242 8.189 -0.20422
-0.0246875 8.19143 -0.204282
-0.0576465 8.19625 -0.204406
-0.0906641 8.20105 -0.204533
-0.123711 8.20584 -0.204663
-0.156797 8.21076 -0.2048
-0.189951 8.21625 -0.204955
-0.223721 8.24279 -0.205637
-0.257959 8.27732 -0.206523
-0.29249 8.31211 -0.207419
-0.327334 8.34719 -0.208325
-0.508193 11.7527 -0.293368
-0.555684 11.7557 -0.293495
-0.603203 11.7586 -0.293626
-0.655947 11.8551 -0.296098
-6.95385 23.096 -0.601517
-6.96091 22.7872 -0.594203
-6.97427 22.5067 -0.587613
-7.00693 22.2947 -0.582807
-7.0762 22.2027 -0.581141
-7.16991 22.188 -0.581506
-7.26777 22.1857 -0.582205
-6.15248 18.529 -0.486891
-6.1579 18.2991 -0.481495
-6.2203 18.2416 -0.480637
-6.29643 18.2246 -0.480854
-6.38725 18.2495 -0.482183
-6.41043 18.0823 -0.478441
-7.96791 22.1919 -0.588021
-3.84577 3.89637 -0.136529
-3.81237 3.83158 -0.134795
-3.80594 3.79447 -0.134027
-3.80635 3.76449 -0.133507
-3.81073 3.73863 -0.133133
-3.81796 3.71574 -0.132862
-3.81702 3.68506 -0.132313
-3.811 3.64975 -0.131594
-3.81752 3.6267 -0.131315
-3.82981 3.6092 -0.131238
-3.84695 3.59627 -0.131329
-3.86983 3.58859 -0.131617
-3.90429 3.59146 -0.132296
-3.94914 3.60354 -0.133324
-3.97689 3.59967 -0.133772
-4.01028 3.60066 -0.134407
-4.05605 3.61242 -0.135453
-4.23517 -23.2882 -0.852842
-4.11949 -23.1811 -0.848308
-4.02102 -23.1673 -0.847202
-3.93012 -23.1966 -0.847688
-3.84538 -23.2638 -0.849575
-3.7571 -23.3119 -0.850771
-3.6836 -23.4557 -0.855472
-4.14113 -43.2428 -1.56518
-0.58583 -10.588 -0.382071
-0.537988 -10.4874 -0.378362
-0.494189 -10.4549 -0.377114
-0.451094 -10.432 -0.376219
-0.40834 -10.4133 -0.375481
-0.36624 -10.4079 -0.375232
-0.32418 -10.4026 -0.374989
-0.282187 -10.3972 -0.374753
-0.240244 -10.392 -0.374527
-0.198447 -10.3918 -0.374488
-0.15665 -10.3916 -0.374454
-0.114873 -10.3914 -0.374427
-0.0730957 -10.3911 -0.374404
-0.0313184 -10.3909 -0.374388
0.0104492 -10.3908 -0.374382
0.0522266 -10.391 -0.374395
0.0940039 -10.3912 -0.374415
0.135781 -10.3915 -0.37444
0.177568 -10.3917 -0.37447
0.219365 -10.3919 -0.374507
0.261221 -10.3944 -0.374631
0.303193 -10.3997 -0.374864
0.345215 -10.4051 -0.375104
0.387295 -10.4104 -0.37535
0.42959 -10.4199 -0.375749
0.472588 -10.4427 -0.376639
0.515996 -10.4697 -0.377685
0.559971 -10.503 -0.378965
3.17403 -25.133 -0.912741
3.21413 -24.6529 -0.895769
3.22779 -24.0046 -0.872674
3.22858 -23.3009 -0.847559
3.20809 -22.4877 -0.81844
3.2511 -22.1519 -0.80669
3.32728 -22.0535 -0.803586
3.41204 -22.015 -0.802675
3.49858 -21.989 -0.802235
3.58852 -21.9843 -0.802584
3.67917 -21.9835 -0.803088
3.76932 -21.9791 -0.803473
3.86032 -21.979 -0.804032
3.95168 -21.9802 -0.804649
4.04295 -21.9801 -0.805235
4.13409 -21.9787 -0.805785
4.2256 -21.9785 -0.806393
4.31811 -21.9826 -0.807175
4.41005 -21.9831 -0.807836
4.5031 -21.9881 -0.808681
4.60166 -22.0187 -0.81048
4.70967 -22.0917 -0.813855
8.61573 -39.6319 -1.4613
8.76771 -39.5642 -1.46009
8.20465 -33.7929 -1.25294
8.32192 -33.6848 -1.25016
8.47739 -33.7312 -1.25314
3.08091 -11.475 -0.428089
3.12169 -11.443 -0.42736
3.17119 -11.4431 -0.427837
3.22086 -11.4434 -0.428329
3.26258 -11.4154 -0.427769
3.25785 -11.2279 -0.421228
3.26068 -11.0712 -0.415838
3.26627 -10.9279 -0.410945
3.2717 -10.7878 -0.406167
3.27237 -10.6359 -0.40094
3.27546 -10.4956 -0.396146
3.28662 -10.3844 -0.392444
3.29122 -10.2554 -0.388067
3.29343 -10.1223 -0.383528
3.2848 -9.95949 -0.377856
3.28261 -9.81996 -0.37306
3.28822 -9.7068 -0.36926
3.29687 -9.60508 -0.365892
3.30126 -9.49342 -0.362141
3.30219 -9.37445 -0.358106
3.29742 -9.24219 -0.353557
3.29842 -9.12889 -0.349727
3.29838 -9.01519 -0.345877
3.31334 -8.94449 -0.343673
3.33711 -8.89867 -0.342425
3.37744 -8.89728 -0.342891
3.41789 -8.89588 -0.343364
3.45844 -8.89445 -0.343843
3.49911 -8.89305 -0.344329
3.54058 -8.89334 -0.344889
3.58229 -8.89391 -0.345467
3.62414 -8.89447 -0.346052
3.66581 -8.89426 -0.346614
3.70728 -8.8932 -0.347151
3.74887 -8.89217 -0.347695
3.79058 -8.89111 -0.348247
3.83261 -8.89043 -0.348822
3.87488 -8.89002 -0.349413
3.91729 -8.88961 -0.350013
3.95985 -8.88916 -0.35062
4.00257 -8.88875 -0.351235
4.04547 -8.88842 -0.351862
4.08852 -8.88807 -0.352496
4.13173 -8.88771 -0.353138
4.1751 -8.88736 -0.353788
4.14529 -8.73252 -0.348285
4.14221 -8.63625 -0.345106
4.13918 -8.5417 -0.34199
4.17937 -8.53701 -0.342473
4.22198 -8.53697 -0.34315
4.26477 -8.53695 -0.343834
4.30772 -8.53693 -0.344528
4.35085 -8.53689 -0.34523
4.39415 -8.53686 -0.34594
4.61999 -8.88764 -0.360905
4.66594 -8.88853 -0.361699
8.06186 -9.71963 -0.454987
8.0272 -9.59906 -0.45085
8.05069 -9.54889 -0.45001
8.09243 -9.52045 -0.4502
8.1617 -9.5241 -0.45192
8.18472 -9.47359 -0.451082
8.2176 -9.43473 -0.4508
8.25917 -9.40586 -0.451003
8.31049 -9.38791 -0.451741
8.37655 -9.38623 -0.453278
8.50282 -9.45098 -0.45805
8.60025 -9.48232 -0.461242
8.49641 2.03574 -0.314792
8.41361 2.0517 -0.312028
8.3753 2.07807 -0.310914
8.33172 2.10285 -0.309607
8.31415 2.134 -0.309271
8.31114 2.16889 -0.309481
8.32579 2.2085 -0.310355
8.3384 2.24775 -0.31116
8.36385 2.2907 -0.312449
8.454 2.35199 -0.316168
8.67061 2.44982 -0.324634
16.8488 4.83377 -0.63156
16.8495 4.90734 -0.632315
8.41135 5.09594 -0.354343
8.28084 5.06248 -0.3497
8.19596 5.05598 -0.34697
8.14621 5.07061 -0.345725
8.10905 5.09281 -0.345014
8.08028 5.12016 -0.344663
8.05846 5.15186 -0.344614
8.04337 5.18787 -0.344858
8.03582 5.22885 -0.345431
8.03449 5.27408 -0.346283
7.98216 5.28576 -0.34494
7.95551 5.31426 -0.344709
7.94826 5.35576 -0.345326
25.6925 30.9757 -1.45001
25.5372 31.0416 -1.44828
23.6334 31.4656 -1.41788
14.2046 31.2093 -1.23547
13.8724 31.1412 -1.22832
13.7315 31.1612 -1.22692
10.4067 25.8372 -1.0036
10.2674 25.7901 -1.00016
10.091 25.6466 -0.99301
9.94752 25.5832 -0.988998
9.80512 25.5202 -0.985032
9.66387 25.4578 -0.981115
9.52639 25.4029 -0.977516
9.46182 25.5426 -0.981418
9.2551 25.2963 -0.970518
9.12001 25.241 -0.966983
8.98586 25.1861 -0.963488
8.8527 25.1316 -0.960034
8.72048 25.0775 -0.95662
8.5892 25.0238 -0.953246
8.45884 24.9704 -0.949912
8.32895 24.9161 -0.946565
8.19869 24.8584 -0.94311
8.06801 24.7968 -0.939538
7.93835 24.7358 -0.936009
7.80962 24.6752 -0.932521
7.68186 24.6151 -0.929073
7.55505 24.5554 -0.925667
7.42853 24.4941 -0.922224
7.30299 24.4334 -0.918824
7.20819 24.4744 -0.919267
7.05176 24.3032 -0.911769
4.75318 16.631 -0.62321
4.6448 16.5025 -0.617695
4.54988 16.4181 -0.613843
4.46401 16.3635 -0.611127
4.38173 16.32 -0.608839
4.30006 16.2768 -0.606578
4.21898 16.2339 -0.604343
4.13879 16.1924 -0.602173
4.05972 16.1534 -0.600112
3.98592 16.1339 -0.598786
3.91271 16.1155 -0.597518
3.84005 16.0983 -0.596298
3.76769 16.081 -0.595094
3.69562 16.0639 -0.593904
3.62382 16.0468 -0.592728
3.55326 16.0341 -0.591727
3.48395 16.026 -0.590907
3.41826 16.0341 -0.590695
3.35307 16.0443 -0.59057
3.28791 16.0545 -0.590455
3.22277 16.0647 -0.590348
3.15765 16.0749 -0.590252
3.09488 16.0973 -0.590612
3.03668 16.1443 -0.591884
2.98266 16.2157 -0.594058
2.92825 16.2877 -0.596257
2.87357 16.3609 -0.59851
2.82398 16.4668 -0.601965
2.77458 16.5785 -0.605637
2.72432 16.69 -0.609302
2.67462 16.8103 -0.613298
2.62531 16.939 -0.617602
2.57564 17.0716 -0.622055
2.5259 17.2106 -0.626747
2.47522 17.3506 -0.631475
2.42312 17.4878 -0.636108
2.37021 17.627 -0.640821
2.31654 17.7683 -0.645614
2.26205 17.9117 -0.65049
2.20673 18.0573 -0.655451
2.15055 18.2052 -0.660498
2.09279 18.349 -0.665406
2.03384 18.4921 -0.670293
1.97473 18.644 -0.675506
1.9148 18.7996 -0.680856
1.85393 18.9575 -0.686303
1.79162 19.1133 -0.691675
1.72795 19.2671 -0.696987
1.665 19.4437 -0.703125
1.59809 19.588 -0.708108
1.53983 19.8587 -0.717663
0.57541 7.82916 -0.282847
0.540947 7.78842 -0.281294
0.506865 7.74807 -0.279761
0.473135 7.70811 -0.278248
0.440098 7.6741 -0.276954
0.408291 7.65812 -0.276316
0.376992 7.64922 -0.275937
0.345762 7.64029 -0.275564
0.314629 7.63141 -0.275195
0.283564 7.62254 -0.274831
0.252598 7.61367 -0.274473
0.221709 7.6048 -0.274119
0.190898 7.59631 -0.273784
0.160176 7.5883 -0.273469
0.129521 7.58029 -0.27316
0.0989551 7.57414 -0.272923
0.0684961 7.57217 -0.272838
0.0380371 7.57016 -0.272758
0.00760742 7.56814 -0.272682
-0.0228223 7.56914 -0.272719
-0.0532617 7.57109 -0.272795
-0.0837207 7.57303 -0.272875
-0.114219 7.57623 -0.273004
-0.144834 7.5842 -0.273309
-0.175518 7.59215 -0.27362
-0.20627 7.60018 -0.273937
-0.237129 7.60898 -0.274287
-0.268057 7.61781 -0.274641
-0.299072 7.62662 -0.275001
-0.330166 7.63547 -0.275365
-0.361348 7.64434 -0.275734
-0.392598 7.6532 -0.276109
-0.423945 7.66205 -0.276488
-0.456318 7.68676 -0.277443
-0.489814 7.72604 -0.278929
-0.523711 7.766 -0.280446
-0.557959 7.80635 -0.281982
-0.59915 7.93402 -0.286679
-6.89573 23.2409 -0.873459
-6.89683 22.9066 -0.861928
-6.90047 22.5894 -0.851031
-6.92396 22.3444 -0.84284
-6.98253 22.2171 -0.839091
-7.05947 22.1502 -0.837631
-7.14804 22.1204 -0.837581
-6.0746 18.5434 -0.703058
-6.15343 18.5319 -0.703554
-6.15946 18.3037 -0.695826
-6.22919 18.2676 -0.695401
-6.30589 18.252 -0.695767
-6.28445 17.9558 -0.685434
-6.36102 17.9429 -0.68591
-7.94084 22.1165 -0.846671
-3.8183 3.86852 -0.195843
-3.80111 3.82025 -0.194173
-3.79715 3.7857 -0.193191
-3.7987 3.75693 -0.1925
-3.80374 3.7318 -0.191993
-3.81139 3.70934 -0.191625
-3.79686 3.66559 -0.190152
-3.79725 3.6366 -0.189438
-3.80601 3.61576 -0.189148
-3.81992 3.59988 -0.189119
-3.83872 3.58857 -0.189335
-3.8641 3.5833 -0.189874
-3.91851 3.60455 -0.191834
-3.94215 3.59715 -0.192282
-3.96911 3.59264 -0.192891
-4.001 3.59232 -0.193737
-4.04222 3.6001 -0.195031
-4.12204 -23.1955 -1.11035
-4.02027 -23.1629 -1.10801
-3.92694 -23.1779 -1.10796
-3.84132 -23.2393 -1.11015
-3.75788 -23.3167 -1.11312
-0.616348 -10.3827 -0.490207
-0.572978 -10.3557 -0.488821
-0.530078 -10.3332 -0.487657
-0.487383 -10.3109 -0.486506
-0.444893 -10.2887 -0.485368
-0.403066 -10.2788 -0.484823
-0.361504 -10.2736 -0.484505
-0.32 -10.2684 -0.484196
-0.278545 -10.2632 -0.483894
-0.237148 -10.258 -0.483601
-0.195801 -10.2528 -0.483314
-0.154492 -10.2476 -0.483036
-0.113232 -10.2424 -0.482765
-0.0720117 -10.2372 -0.482502
-0.0308594 -10.2367 -0.482466
0.010293 -10.2365 -0.482458
0.0514453 -10.2368 -0.482475
0.092627 -10.2397 -0.482625
0.133857 -10.2449 -0.482892
0.175137 -10.2501 -0.483166
0.216465 -10.2553 -0.483449
0.257852 -10.2605 -0.483739
0.299277 -10.2657 -0.484036
0.340762 -10.2709 -0.484342
0.382295 -10.2761 -0.484655
0.423877 -10.2812 -0.484977
0.466094 -10.2991 -0.485901
0.508682 -10.3213 -0.487046
0.551484 -10.3438 -0.488203
0.594473 -10.3663 -0.489374
3.14881 -24.9334 -1.18447
3.20651 -24.5946 -1.16898
3.22039 -23.9496 -1.13893
3.21679 -23.2157 -1.10463
3.17298 -22.2416 -1.05888
3.22591 -21.9803 -1.04705
3.30899 -21.9323 -1.04539
3.39557 -21.9087 -1.04491
3.48284 -21.8901 -1.04468
3.57309 -21.8898 -1.04534
3.66354 -21.8902 -1.04605
3.75422 -21.891 -1.04681
3.84479 -21.8906 -1.04752
3.93552 -21.8903 -1.04825
4.02637 -21.89 -1.04901
4.11743 -21.8901 -1.04979
4.20861 -21.8901 -1.0506
4.29982 -21.8896 -1.05139
4.39102 -21.8882 -1.05216
4.48273 -21.8887 -1.05305
4.57657 -21.8987 -1.05441
4.67371 -21.923 -1.05647
4.77795 -21.9783 -1.06005
3.10346 -12.7824 -0.619948
3.14282 -12.7212 -0.617591
3.18188 -12.6606 -0.61526
3.20169 -12.5261 -0.609348
3.19121 -12.2792 -0.597956
3.20651 -12.1374 -0.591674
3.21147 -11.9613 -0.583714
3.20792 -11.7591 -0.574471
3.21878 -11.6148 -0.568048
3.21102 -11.4084 -0.558582
3.20026 -11.1974 -0.548875
3.19757 -11.0201 -0.540812
3.20395 -10.8786 -0.534492
3.2102 -10.7402 -0.528326
3.2163 -10.6051 -0.522308
3.21791 -10.4588 -0.515738
3.21724 -10.309 -0.508984
3.21658 -10.1631 -0.502411
3.21455 -10.0165 -0.495803
3.2191 -9.89381 -0.490366
3.22354 -9.77377 -0.485054
3.22724 -9.65432 -0.479767
3.23106 -9.53809 -0.474632
3.23487 -9.42449 -0.469622
3.23645 -9.30705 -0.464416
3.23813 -9.1926 -0.459349
3.23977 -9.08061 -0.454401
3.24516 -8.98145 -0.450088
3.26848 -8.93346 -0.448338
3.29161 -8.88584 -0.446609
3.31672 -8.8443 -0.445188
3.35678 -8.84285 -0.44579
3.39694 -8.84139 -0.446401
3.43722 -8.8399 -0.44702
3.47761 -8.83842 -0.447648
3.51811 -8.83691 -0.448285
3.55873 -8.83543 -0.448931
3.59945 -8.83391 -0.449586
3.64055 -8.83297 -0.450279
3.6817 -8.83187 -0.450974
3.72296 -8.83072 -0.451677
3.76436 -8.82959 -0.452388
3.80588 -8.82844 -0.453109
3.84753 -8.82727 -0.45384
3.88932 -8.82609 -0.45458
3.93123 -8.82492 -0.455329
3.97329 -8.82371 -0.456088
3.97102 -8.7248 -0.451797
3.97088 -8.63232 -0.44783
3.97075 -8.54143 -0.44394
4.00845 -8.53262 -0.444316
4.05038 -8.5326 -0.445159
4.09248 -8.53254 -0.446012
4.13473 -8.53252 -0.446875
4.17715 -8.53248 -0.447749
4.21974 -8.53242 -0.448633
4.26249 -8.5324 -0.449528
4.30542 -8.53236 -0.450434
4.34852 -8.5323 -0.451351
4.3918 -8.53228 -0.45228
4.43525 -8.53225 -0.453219
4.47889 -8.53219 -0.45417
4.52271 -8.53215 -0.455131
4.56672 -8.53211 -0.456104
8.03307 -9.68492 -0.593041
8.04307 -9.61805 -0.590921
8.08195 -9.58594 -0.590941
8.1245 -9.55818 -0.591238
8.13812 -9.49658 -0.589446
8.16324 -9.44877 -0.58851
8.19667 -9.4107 -0.588188
8.23769 -9.38139 -0.58842
8.28699 -9.36137 -0.589249
8.34747 -9.35365 -0.590871
8.43101 -9.37115 -0.594112
8.51528 2.07648 -0.413094
8.32498 2.06559 -0.404261
8.29848 2.09445 -0.40338
8.28866 2.12744 -0.403315
8.29346 2.16426 -0.403969
8.32778 2.20902 -0.40607
8.37098 2.25652 -0.408615
8.40505 2.30199 -0.410726
8.65104 2.4068 -0.423217
8.66896 2.44936 -0.424572
16.9787 4.87104 -0.832505
8.41622 5.09889 -0.463783
8.39355 5.13141 -0.463667
8.20768 5.0632 -0.45452
8.15602 5.07672 -0.452786
8.11807 5.09848 -0.451812
8.08883 5.12559 -0.451329
8.06676 5.15717 -0.45125
8.05157 5.19314 -0.451565
8.04414 5.23426 -0.452324
8.04732 5.2825 -0.453694
7.94477 5.26102 -0.4491
7.91842 5.28947 -0.448809
7.91869 5.33582 -0.450037
4.64048 8.50486 -0.456628
4.59331 8.49951 -0.455345
4.54641 8.49416 -0.454077
4.49976 8.48887 -0.452822
4.45335 8.48355 -0.451581
4.40721 8.4783 -0.450354
4.3613 8.47305 -0.44914
4.31603 8.46857 -0.44798
4.27244 8.46701 -0.446985
4.22904 8.46545 -0.446002
4.18582 8.46389 -0.445029
4.14279 8.46232 -0.444067
4.09995 8.46076 -0.443117
4.05728 8.45918 -0.442177
4.01479 8.4576 -0.441247
3.97395 8.45922 -0.440494
3.93409 8.4626 -0.439843
3.89436 8.46598 -0.439202
3.85473 8.46934 -0.438568
3.81521 8.47266 -0.437943
3.7758 8.476 -0.437327
3.73649 8.4793 -0.436719
3.69729 8.4826 -0.436119
3.65842 8.48637 -0.435555
3.6206 8.49238 -0.435113
3.58287 8.49844 -0.43468
3.54591 8.50609 -0.434341
3.5208 8.54244 -0.43547
3.49556 8.57891 -0.436608
3.47015 8.61549 -0.437757
3.44457 8.65223 -0.438916
3.42157 8.69598 -0.440435
3.3988 8.74107 -0.442023
3.37583 8.78643 -0.443627
3.35269 8.83205 -0.445247
3.34752 8.92645 -0.449323
3.34415 9.02766 -0.453737
3.34384 9.13945 -0.458677
3.34322 9.25289 -0.463691
3.34259 9.36881 -0.468823
3.34193 9.4873 -0.474077
8.71817 25.0709 -1.25102
8.58533 25.0125 -1.24638
8.45347 24.9546 -1.24179
8.32258 24.8971 -1.23725
8.19281 24.8406 -1.23279
8.06402 24.7846 -1.2284
7.93618 24.7291 -1.22405
7.80921 24.6739 -1.21976
7.68169 24.6146 -1.21529
7.55591 24.5582 -1.211
7.43209 24.5059 -1.20693
7.31684 24.4797 -1.20419
7.17366 24.3571 -1.19673
4.78661 16.4967 -0.809571
4.69726 16.4353 -0.805627
4.60877 16.3745 -0.801733
4.52113 16.3143 -0.79789
4.43855 16.2702 -0.794853
4.35717 16.2285 -0.791955
4.27679 16.1887 -0.789168
4.19697 16.1492 -0.786412
4.11771 16.11 -0.78369
4.04187 16.0824 -0.781551
3.96843 16.0631 -0.779831
3.8953 16.0438 -0.778131
3.82251 16.0247 -0.77645
3.75017 16.0063 -0.77482
3.67847 15.9893 -0.773279
3.60726 15.9734 -0.771802
3.53806 15.9654 -0.770723
3.46905 15.9575 -0.76966
3.40025 15.9496 -0.768611
3.33161 15.9417 -0.767578
3.26615 15.9483 -0.76726
3.20145 15.9585 -0.767123
3.1391 15.9806 -0.767574
3.08114 16.0259 -0.769149
3.02289 16.071 -0.770726
2.96608 16.1256 -0.772764
2.91382 16.2073 -0.776114
2.86358 16.304 -0.780188
2.91474 16.996 -0.812735
2.83879 16.9621 -0.810561
2.76323 16.9284 -0.808414
2.68809 16.895 -0.806292
2.62247 16.9207 -0.807009
2.57338 17.0566 -0.812992
2.52368 17.1956 -0.819128
2.47332 17.3372 -0.825395
2.42219 17.4811 -0.831772
2.37024 17.6272 -0.838263
2.31749 17.7756 -0.84487
2.2639 17.9263 -0.851595
2.20912 18.077 -0.858325
2.15278 18.2241 -0.864892
2.09466 18.3654 -0.871188
2.03566 18.5087 -0.877593
1.97579 18.6541 -0.884107
1.91504 18.8018 -0.890732
1.85358 18.9541 -0.897584
1.79052 19.1015 -0.90422
1.72653 19.2514 -0.91098
0.65125 7.60516 -0.359749
0.613896 7.52463 -0.355822
0.580986 7.49266 -0.354197
0.549697 7.47924 -0.353455
0.518496 7.46506 -0.352683
0.487422 7.45092 -0.35192
0.456641 7.43947 -0.35129
0.42626 7.43299 -0.3509
0.395947 7.4265 -0.350515
0.365654 7.4192 -0.350098
0.33543 7.41187 -0.349687
0.305283 7.40457 -0.349281
0.275195 7.39727 -0.348881
0.245176 7.38996 -0.348487
0.215225 7.38264 -0.348099
0.185312 7.37432 -0.347669
0.155479 7.36568 -0.347228
0.125713 7.35705 -0.346794
0.0960156 7.3484 -0.346367
0.0663965 7.33994 -0.345952
0.0368457 7.33215 -0.345575
0.00736328 7.32436 -0.345204
-0.0220898 7.32832 -0.345392
-0.0516016 7.33605 -0.345764
-0.0811816 7.34406 -0.346154
-0.11084 7.35266 -0.346577
-0.140576 7.36125 -0.347006
-0.170391 7.36984 -0.347441
-0.200264 7.37846 -0.347882
-0.230186 7.38603 -0.34828
-0.260166 7.39332 -0.348669
-0.290205 7.40057 -0.349064
-0.320322 7.40783 -0.349465
-0.350508 7.41512 -0.349872
-0.380762 7.4224 -0.350284
-0.411055 7.42918 -0.350681
-0.441406 7.43564 -0.351066
-0.471895 7.4433 -0.351514
-0.502891 7.45736 -0.352271
-0.534023 7.47148 -0.353036
-0.565264 7.48527 -0.353793
-0.596602 7.49863 -0.354535
-0.632441 7.56436 -0.357759
-0.670195 7.64562 -0.361728
-6.80165 23.2665 -1.14247
-6.80295 22.9282 -1.12719
-6.806 22.6049 -1.11263
-6.81436 22.3074 -1.09933
-6.86703 22.1606 -1.09345
-6.94407 22.0947 -1.09156
-7.03454 22.072 -1.09183
-7.13201 22.0707 -1.09318
-7.22257 22.0477 -1.09346
-6.04351 18.2008 -0.903876
-6.11839 18.1816 -0.904136
-6.27335 18.3971 -0.916099
-6.32357 18.3032 -0.912682
-6.40706 18.3061 -0.914102
-7.83172 22.0914 -1.10468
-7.93475 22.0995 -1.10667
-3.81018 3.86029 -0.255636
-3.79622 3.81533 -0.253669
-3.79328 3.78186 -0.252454
-3.79542 3.75369 -0.251591
-3.80088 3.72898 -0.250957
-3.80884 3.70686 -0.250497
-3.78039 3.64969 -0.247658
-3.78449 3.62437 -0.24697
-3.79513 3.60543 -0.246717
-3.81061 3.59109 -0.246783
-3.8312 3.58154 -0.247182
-3.85987 3.57938 -0.248102
-3.91778 3.60389 -0.25089
-3.9418 3.59684 -0.2515
-3.96931 3.59281 -0.252332
-4.00204 3.59326 -0.253493
-4.04535 3.60289 -0.255316
-4.13742 -23.2821 -1.37727
-4.03361 -23.2398 -1.3738
-3.93829 -23.2449 -1.37315
-3.8574 -23.3366 -1.37764
-3.77525 -23.4245 -1.38193
-0.964043 -10.5119 -0.614817
-0.918994 -10.484 -0.612963
-0.876553 -10.4841 -0.612763
-0.835166 -10.4972 -0.613327
-0.650273 -10.2569 -0.598594
-0.607568 -10.2347 -0.597155
-0.565078 -10.2129 -0.595742
-0.522832 -10.1919 -0.594391
-0.480771 -10.171 -0.593056
-0.438896 -10.1502 -0.591735
-0.397764 -10.1436 -0.591249
-0.356748 -10.1385 -0.590864
-0.315801 -10.1334 -0.59049
-0.274893 -10.1283 -0.590123
-0.234033 -10.1232 -0.589765
-0.193203 -10.1173 -0.589372
-0.152432 -10.1113 -0.588982
-0.111709 -10.1053 -0.588601
-0.0710449 -10.0993 -0.588232
-0.0304199 -10.0933 -0.58787
0.0101465 -10.0901 -0.58768
0.0507422 -10.0961 -0.588037
0.091377 -10.1021 -0.588405
0.13207 -10.1081 -0.58878
0.172822 -10.1141 -0.589163
0.213613 -10.1201 -0.589558
0.254453 -10.1256 -0.589932
0.295342 -10.1307 -0.590296
0.336289 -10.1358 -0.590666
0.377266 -10.1409 -0.591047
0.418301 -10.146 -0.591437
0.459795 -10.1599 -0.592354
0.501758 -10.1808 -0.593681
0.543916 -10.2017 -0.595024
0.58626 -10.223 -0.596399
0.628857 -10.2451 -0.597831
0.67166 -10.2672 -0.599278
0.815518 -10.5175 -0.614414
0.855742 -10.489 -0.612947
0.897666 -10.4826 -0.612778
0.940957 -10.492 -0.613541
3.14883 -24.9335 -1.46375
3.17436 -24.3479 -1.4301
3.18136 -23.6593 -1.39039
3.14882 -22.7252 -1.33624
3.15479 -22.114 -1.30104
3.22436 -21.9697 -1.2933
3.30594 -21.9121 -1.29067
3.39468 -21.9029 -1.29093
3.48481 -21.9024 -1.29172
3.57528 -21.9032 -1.2926
3.66542 -21.9013 -1.29335
3.75614 -21.9023 -1.29429
3.84703 -21.9034 -1.29525
3.938 -21.9041 -1.29622
4.02905 -21.9046 -1.2972
4.12021 -21.9049 -1.29819
4.21144 -21.9048 -1.29918
4.30279 -21.9047 -1.30018
4.39471 -21.9066 -1.30133
4.48674 -21.9083 -1.3025
4.57832 -21.907 -1.3035
4.67213 -21.9156 -1.30512
4.77865 -21.9816 -1.31019
3.0756 -12.8935 -0.772029
3.09463 -12.746 -0.763939
3.12564 -12.6517 -0.759032
3.10643 -12.3603 -0.742296
3.1126 -12.1776 -0.732068
3.13937 -12.0797 -0.726935
3.1582 -11.9546 -0.72016
3.17376 -11.8208 -0.712867
3.18814 -11.6866 -0.705541
3.184 -11.4894 -0.694399
3.17773 -11.2901 -0.683124
3.16958 -11.0901 -0.671786
3.17729 -10.9503 -0.664085
3.18447 -10.8124 -0.656496
3.1909 -10.6757 -0.648966
3.19619 -10.5388 -0.641421
3.1958 -10.387 -0.632958
3.19542 -10.2391 -0.624725
3.19003 -10.0792 -0.615745
3.17146 -9.88227 -0.604489
3.17324 -9.75289 -0.597351
3.1747 -9.62566 -0.590335
3.17612 -9.50141 -0.583492
3.18091 -9.39002 -0.577435
3.19384 -9.3049 -0.572985
3.1952 -9.18844 -0.5666
3.19646 -9.07432 -0.560351
3.17388 -8.89592 -0.550117
3.18288 -8.80912 -0.545536
3.21779 -8.79492 -0.545455
3.26427 -8.81201 -0.547323
3.30878 -8.82314 -0.548835
3.34918 -8.82281 -0.549648
3.38951 -8.82201 -0.550443
3.42968 -8.82049 -0.551204
3.46996 -8.81894 -0.551975
3.51035 -8.81742 -0.552758
3.55086 -8.8159 -0.553553
3.59148 -8.81434 -0.554357
3.63224 -8.81279 -0.555173
3.67329 -8.81172 -0.556031
3.71456 -8.81078 -0.55691
3.75595 -8.80986 -0.557802
3.79747 -8.80894 -0.558704
3.83913 -8.80799 -0.559619
3.88093 -8.80705 -0.560547
3.92286 -8.80611 -0.561485
3.92736 -8.72176 -0.55711
3.92762 -8.62949 -0.55222
3.92787 -8.53883 -0.547425
3.96458 -8.52816 -0.547759
4.00633 -8.52812 -0.548785
4.04823 -8.52809 -0.549825
4.0903 -8.52803 -0.550878
4.13253 -8.52799 -0.551944
4.17492 -8.52795 -0.553023
4.21748 -8.52789 -0.554114
4.2602 -8.52785 -0.555219
4.30311 -8.52779 -0.556338
4.34618 -8.52773 -0.557471
4.38943 -8.52769 -0.558616
4.43286 -8.52766 -0.559776
4.47646 -8.52758 -0.56095
4.52026 -8.52754 -0.562137
4.56424 -8.5275 -0.563338
4.60841 -8.52744 -0.564554
4.79386 -8.78598 -0.582942
8.02202 -9.75111 -0.735428
8.06268 -9.7206 -0.735567
8.07099 -9.65141 -0.73278
8.07863 -9.58201 -0.729972
8.1008 -9.53029 -0.728508
8.13217 -9.48965 -0.727892
8.17139 -9.45818 -0.727992
8.21877 -9.43607 -0.728829
8.27665 -9.42576 -0.730595
8.34457 -9.42641 -0.733239
8.53427 -9.56297 -0.746525
8.53218 -9.48361 -0.743
8.56498 -9.44344 -0.742544
8.62828 -9.43672 -0.744739
8.32769 2.03076 -0.499246
8.28651 2.05604 -0.497269
8.26964 2.08717 -0.496756
8.26698 2.12189 -0.497105
8.2819 2.16123 -0.49852
8.37258 2.2209 -0.504512
8.38044 2.25906 -0.505527
8.4085 2.30293 -0.507775
8.66351 2.41025 -0.523756
8.67364 2.45068 -0.524959
16.8684 4.83939 -1.02211
16.7036 4.86486 -1.0133
8.43686 5.06514 -0.573147
8.40379 5.09135 -0.572286
8.30845 5.07936 -0.567178
8.20815 5.0635 -0.561718
8.15882 5.07844 -0.559734
8.12286 5.10148 -0.55867
8.09571 5.12994 -0.558216
8.07605 5.16311 -0.558287
8.06399 5.20117 -0.558895
8.0613 5.24545 -0.560164
7.93518 5.20891 -0.552852
7.88978 5.22459 -0.551147
7.8742 5.25994 -0.551532
4.7095 8.38912 -0.560338
4.66278 8.38469 -0.558788
4.61633 8.38029 -0.557253
4.56998 8.37564 -0.555716
4.52372 8.37072 -0.554179
4.47771 8.36584 -0.552659
