ply
format ascii 1.0
comment Created by Open3D
element vertex 1721
property float x
property float y
property float z
end_header
-56.3106 34.8936 -0.917674
-56.8205 34.8943 -0.923691
-57.8851 34.9103 -0.936396
-58.4315 34.9202 -0.942959
-58.9798 34.9269 -0.949551
-60.0687 34.9225 -0.962518
-66.14 34.9742 -1.0364
-62.5311 32.7448 -0.977801
-63.2174 32.4593 -0.98442
-67.0823 33.0917 -1.03618
-67.2616 32.8446 -1.0369
-82.7404 32.8438 -1.23317
-59.2236 -20.2615 -1.56098
-49.533 -27.7415 -1.41582
-48.6187 -27.7452 -1.39601
-45.8303 -28.6551 -1.34795
-45.8356 -28.9153 -1.35151
-32.1728 -20.4774 -0.951068
-32.005 -20.5518 -0.948543
-31.9059 -20.6698 -0.948061
-50.3131 -32.8826 -1.49893
-49.7378 -32.7927 -1.48571
-49.6064 -32.9929 -1.48573
-46.317 -32.4431 -1.41025
-45.7679 -32.8882 -1.4055
-43.9977 -32.9771 -1.37122
-43.8924 -33.1745 -1.37208
-30.4166 -27.7547 -1.02687
-30.1418 -27.7269 -1.02135
-29.9723 -27.7942 -1.01938
-29.7041 -27.7684 -1.01405
-29.4286 -27.7334 -1.00844
-29.197 -27.7376 -1.00432
-28.9745 -27.7487 -1.0005
-28.752 -27.758 -0.996658
-28.5304 -27.7665 -0.992836
-28.3046 -27.7692 -0.988857
-28.0687 -27.7601 -0.984506
-27.8377 -27.7539 -0.98031
-27.6461 -27.7853 -0.977486
-27.4106 -27.7711 -0.973107
-27.3117 -27.8943 -0.973561
-27.165 -27.9685 -0.972334
-26.7541 -27.768 -0.961615
-19.2273 -20.1171 -0.693981
-19.2023 -20.2533 -0.69601
-19.0824 -20.2896 -0.694617
-26.1365 -28.0147 -0.955482
-26.08 -28.1805 -0.957551
-19.0293 -20.7285 -0.701732
-18.9509 -20.8104 -0.70192
-26.0338 -28.8201 -0.968548
-26.0576 -29.0806 -0.973772
-16.5615 -20.2139 -0.651692
-16.4418 -20.2332 -0.650177
-16.3083 -20.2345 -0.648107
-16.1795 -20.2407 -0.646217
-16.1447 -20.3645 -0.648093
-16.1321 -20.5175 -0.650892
-16.0132 -20.5356 -0.649421
-23.5972 -32.9081 -1.00986
-23.5442 -33.1144 -1.01328
-21.0772 -32.8957 -0.974314
-20.8285 -32.7972 -0.968907
-12.6708 -20.1302 -0.593185
-12.5393 -20.1 -0.590805
-12.4975 -20.2135 -0.59266
-12.5087 -20.4146 -0.597078
-6.35439 -19.9379 -0.521861
-6.30327 -20.0558 -0.52428
-6.22787 -20.098 -0.524723
-4.29892 -43.0651 -1.07931
-4.81207 -52.4706 -1.31402
-4.592 -52.3856 -1.31142
-4.2284 -50.574 -1.26563
-4.25288 -53.454 -1.33727
-1.47439 -21.8634 -0.546477
-1.3724 -21.647 -0.540923
-0.630322 -10.6178 -0.265257
-0.585566 -10.5831 -0.264328
-0.541133 -10.5485 -0.263409
-0.497002 -10.5142 -0.2625
-0.453184 -10.4801 -0.2616
-0.409932 -10.4534 -0.260892
-0.366982 -10.4285 -0.260232
-0.324238 -10.4037 -0.259579
-0.282002 -10.3902 -0.259211
-0.240156 -10.3878 -0.259124
-0.19833 -10.3853 -0.259041
-0.156533 -10.3827 -0.258957
-0.114746 -10.3796 -0.258866
-0.072998 -10.3765 -0.258779
-0.0312793 -10.3733 -0.258695
0.0104102 -10.3716 -0.258652
0.0521191 -10.3748 -0.258735
0.0938672 -10.378 -0.258822
0.135635 -10.3812 -0.258912
0.177432 -10.3842 -0.259002
0.219238 -10.3867 -0.259085
0.261074 -10.3891 -0.25917
0.302939 -10.3916 -0.259259
0.345557 -10.4157 -0.259894
0.388408 -10.4406 -0.260552
0.431465 -10.4655 -0.261216
0.47502 -10.4966 -0.262037
0.519004 -10.5309 -0.262942
0.563281 -10.5653 -0.263857
0.607871 -10.6 -0.264782
0.652783 -10.6349 -0.265716
3.21268 -49.1106 -1.22736
3.14094 -45.2223 -1.13049
3.1479 -42.831 -1.07102
3.27273 -42.2077 -1.05575
3.44233 -42.1936 -1.05574
3.61162 -42.1761 -1.05565
3.78219 -42.1729 -1.05595
3.95335 -42.1751 -1.05639
4.12434 -42.1739 -1.05677
4.29547 -42.1731 -1.05717
4.46807 -42.1845 -1.0579
4.6414 -42.2006 -1.05876
8.51569 -59.6925 -1.50371
8.00825 -54.5657 -1.37536
8.22685 -54.5286 -1.37524
7.9372 -43.152 -1.09419
8.13483 -43.2486 -1.09746
8.24331 -35.1838 -0.901187
8.39068 -35.1755 -0.901831
7.76355 -30.8909 -0.794327
7.88103 -30.8335 -0.793657
7.99333 -30.757 -0.792509
8.16613 -30.9109 -0.797315
8.51353 28.9065 -0.751498
8.39267 28.9246 -0.751086
8.25636 28.8883 -0.749275
8.13564 28.9052 -0.748859
8.0125 28.9129 -0.748216
7.80017 29.0522 -0.750176
8.24552 31.2114 -0.805068
8.10554 31.1888 -0.803637
7.98992 31.2595 -0.804626
7.89355 31.4082 -0.80763
0.775 26.5843 -0.663252
0.668516 26.6032 -0.663652
0.561504 26.6028 -0.663579
0.454473 26.5994 -0.663444
0.347471 26.5958 -0.663315
0.240527 26.5938 -0.663234
0.133613 26.592 -0.66317
0.0264258 26.3234 -0.656465
-0.0793945 26.3234 -0.656467
-0.185205 26.3234 -0.656481
-0.291035 26.3234 -0.656505
-0.396875 26.3234 -0.656539
-0.502715 26.3234 -0.656584
-0.608594 26.3234 -0.65664
-0.72207 26.6034 -0.663693
-0.829131 26.6044 -0.663793
-4.42344 55.5975 -1.39089
-4.64294 48.4821 -1.2146
-4.88456 47.0185 -1.17888
-5.09499 47.1971 -1.18386
-5.04697 32.1367 -0.811263
-5.15558 31.9888 -0.808044
-9.68733 57.1767 -1.44622
-6.67339 36.6951 -0.930127
-6.77655 36.43 -0.92409
-6.91017 36.3353 -0.922385
-7.04297 36.2391 -0.920656
-7.18429 36.1889 -0.920106
-7.32591 36.1411 -0.919631
-7.54899 36.4875 -0.929211
-7.92568 36.1078 -0.921909
-8.08036 36.1185 -0.923005
-8.23441 36.125 -0.924007
-8.38858 36.1303 -0.925
-8.54169 36.1299 -0.925859
-9.00415 36.1341 -0.928683
-9.31418 36.1373 -0.930661
-9.46955 36.1385 -0.931663
-9.62511 36.139 -0.932667
-11.073 36.2483 -0.945212
-11.3047 36.4814 -0.952469
-15.459 45.3347 -1.1945
-15.845 45.2718 -1.19616
-22.1311 45.4372 -1.2604
-22.4038 45.5312 -1.26549
-25.3108 45.2997 -1.29408
-27.6845 40.9964 -1.23367
-28.1377 40.9537 -1.23915
-28.3345 40.8869 -1.24057
-28.5792 40.888 -1.24408
-29.0849 40.9071 -1.25173
-39.0421 41.1789 -1.41513
-39.0473 40.8542 -1.40935
-39.2255 40.3856 -1.40402
-32.0009 32.6834 -1.14071
-32.0262 32.4474 -1.13696
-39.9233 40.1244 -1.41157
-40.2454 40.1242 -1.41724
-40.9461 40.1715 -1.43051
-41.2819 40.1765 -1.43658
-41.6153 40.1765 -1.44255
-41.9446 40.1699 -1.44835
-42.2835 40.1699 -1.45447
-42.9037 40.1078 -1.46466
-43.2507 40.1076 -1.47101
-52.9741 41.7375 -1.68187
-52.8556 40.2838 -1.65733
-53.0431 40.0906 -1.65814
-47.1578 33.0319 -1.43585
-47.2681 32.8267 -1.43517
-32.3752 -20.2423 -1.37573
-32.3187 -20.3882 -1.3768
-31.9229 -20.6808 -1.37046
-29.8997 -27.7269 -1.46921
-29.7186 -27.782 -1.46579
-29.4755 -27.7776 -1.45929
-29.2375 -27.7761 -1.45303
-29.0033 -27.7762 -1.44692
-28.7745 -27.7797 -1.44107
-28.5438 -27.7796 -1.4351
-28.315 -27.7794 -1.4292
-28.0799 -27.7711 -1.42295
-27.3518 -27.7115 -1.40289
-27.1327 -27.7115 -1.39735
-26.9153 -27.7114 -1.39189
-16.4012 -20.3498 -0.9417
-16.1213 -20.1679 -0.930278
-16.0123 -20.1975 -0.928668
-15.9647 -20.3046 -0.930631
-23.6025 -32.9155 -1.45934
-23.4942 -33.0441 -1.46084
-21.13 -32.9782 -1.41119
-12.5984 -20.1948 -0.857603
-12.5218 -20.2528 -0.85792
-12.5396 -20.465 -0.864768
-6.44685 -19.9504 -0.755417
-6.38826 -20.0441 -0.757987
-6.30575 -20.0637 -0.757763
-6.27049 -20.2355 -0.763293
-4.30031 -43.0791 -1.55987
-1.96481 -22.4147 -0.810704
-1.84147 -22.025 -0.796334
-1.73669 -21.8282 -0.788962
-1.63526 -21.6541 -0.782423
-1.53617 -21.4922 -0.776345
-0.676689 -10.0345 -0.362365
-0.635352 -10.0215 -0.361802
-0.594141 -10.0086 -0.361245
-0.553066 -9.99562 -0.360696
-0.512109 -9.98271 -0.360153
-0.47127 -9.96986 -0.359617
-0.430625 -9.95852 -0.359143
-0.390107 -9.94791 -0.358701
-0.349687 -9.93734 -0.358266
-0.309551 -9.93268 -0.35805
-0.269492 -9.92949 -0.357893
-0.229492 -9.92627 -0.357742
-0.189512 -9.92307 -0.357596
-0.149561 -9.91984 -0.357455
-0.109639 -9.91631 -0.357309
-0.0697363 -9.91152 -0.357123
-0.029873 -9.90672 -0.356943
0.00995117 -9.90416 -0.356849
0.0497852 -9.90898 -0.357028
0.089668 -9.91381 -0.357211
0.12958 -9.91814 -0.357384
0.169512 -9.92141 -0.357523
0.209482 -9.92463 -0.357667
0.249492 -9.92785 -0.357816
0.289521 -9.93105 -0.357971
0.32959 -9.93426 -0.35813
0.369873 -9.94244 -0.358476
0.410332 -9.95301 -0.358914
0.450898 -9.96363 -0.359359
0.49165 -9.97607 -0.359876
0.532549 -9.98897 -0.360416
0.573574 -10.0019 -0.360962
0.614717 -10.0148 -0.361516
0.655986 -10.0278 -0.362076
0.697383 -10.0408 -0.362644
3.1437 -42.7739 -1.54531
3.31666 -42.7742 -1.54579
4.80016 -45.3199 -1.64202
4.70483 -42.7775 -1.55058
8.24036 -35.1711 -1.30154
8.38422 -35.1483 -1.30193
7.95755 -31.1329 -1.15779
7.98083 -30.7088 -1.1432
8.10108 -30.6647 -1.14276
8.27631 28.9581 -1.08515
8.03195 28.983 -1.08363
8.21038 31.0785 -1.15818
8.06225 31.0222 -1.15487
7.93984 31.0636 -1.15521
7.85343 31.2486 -1.16091
0.889648 26.8158 -0.966714
0.773926 26.5474 -0.956919
0.66707 26.5457 -0.956753
0.560293 26.5451 -0.956642
0.453545 26.5444 -0.956544
0.346797 26.5437 -0.95646
0.240156 26.5523 -0.956726
0.133418 26.5526 -0.956712
0.0266602 26.553 -0.956713
-0.0793457 26.3108 -0.947993
-0.185117 26.3108 -0.948012
-0.290898 26.3108 -0.948046
-0.39668 26.3108 -0.948096
-0.50248 26.3108 -0.948161
-0.61373 26.5459 -0.956712
-0.720527 26.5465 -0.956832
-0.827412 26.5493 -0.957046
-5.05746 32.2035 -1.17452
-5.16158 32.0261 -1.1688
-7.03467 36.99 -1.35665
-7.03511 36.1987 -1.32865
-7.17378 36.136 -1.3274
-7.32185 36.121 -1.32792
-7.47447 36.1273 -1.32924
-7.62738 36.1337 -1.3306
-7.77812 36.1285 -1.33155
-7.92882 36.122 -1.33247
-8.10307 36.2201 -1.33728
-8.37594 36.0758 -1.3344
-8.52733 36.0691 -1.33541
-11.2975 36.4581 -1.37522
-19.4212 -20.32 -1.32478
-18.9574 -20.3198 -1.30976
-16.3107 -20.4049 -1.23119
-15.9977 -20.1791 -1.21368
-15.9132 -20.239 -1.21343
-6.3945 -20.0637 -0.992489
-6.31586 -20.0959 -0.992814
-2.03975 -22.2413 -1.05265
-1.92689 -21.982 -1.04001
-1.82318 -21.8063 -1.03134
-1.72031 -21.6224 -1.0223
-1.61694 -21.4116 -1.01202
-0.697246 -9.7551 -0.46094
-0.657061 -9.74342 -0.46026
-0.6171 -9.7334 -0.459666
-0.577227 -9.72342 -0.459081
-0.537451 -9.71344 -0.458503
-0.497783 -9.70344 -0.457934
-0.458203 -9.69346 -0.457372
-0.41873 -9.6835 -0.456819
-0.379346 -9.67352 -0.456273
-0.340244 -9.66896 -0.45599
-0.30124 -9.666 -0.455789
-0.262236 -9.6616 -0.455529
-0.223271 -9.65713 -0.455272
-0.184346 -9.65266 -0.455022
-0.145459 -9.64816 -0.454778
-0.106621 -9.64363 -0.454541
-0.0678125 -9.6391 -0.454311
-0.0290527 -9.63457 -0.454088
0.00967773 -9.63215 -0.453972
0.048418 -9.6367 -0.454193
0.0871973 -9.64127 -0.45442
0.126025 -9.64578 -0.454654
0.164883 -9.65031 -0.454895
0.203789 -9.65482 -0.455142
0.242734 -9.65932 -0.455396
0.281719 -9.66379 -0.455657
0.320723 -9.66748 -0.455889
0.359756 -9.67047 -0.456093
0.399014 -9.67832 -0.456536
0.438447 -9.6883 -0.457086
0.477969 -9.6983 -0.457644
0.517588 -9.70826 -0.45821
0.557305 -9.71828 -0.458784
0.597129 -9.72828 -0.459366
0.637051 -9.73828 -0.459956
0.677109 -9.74885 -0.46058
0.717393 -9.76105 -0.461288
7.87931 -31.3515 -1.52358
7.98107 -31.2248 -1.51897
8.07187 -30.5542 -1.48945
8.20439 -30.5578 -1.49122
8.02438 28.9557 -1.41615
8.06297 31.025 -1.51081
7.95619 31.1275 -1.51424
0.884463 26.6597 -1.25719
0.777041 26.6546 -1.25679
0.669678 26.6496 -1.25642
0.562402 26.6449 -1.25608
0.455215 26.6423 -1.25586
0.348076 26.6415 -1.25575
0.240947 26.6409 -1.25567
0.133857 26.6405 -1.25561
0.026748 26.6403 -1.25559
-0.0803418 26.6403 -1.25559
-0.187422 26.6404 -1.25562
-0.294541 26.6408 -1.25569
-0.40166 26.6413 -1.25578
-0.508799 26.6421 -1.2559
-0.616074 26.6466 -1.25622
-0.723369 26.6514 -1.25657
-0.830742 26.6563 -1.25695
-5.04962 32.1536 -1.53401
-5.14952 31.9512 -1.52532
-16.4164 -20.537 -1.53133
-15.8806 -20.1976 -1.49645
-6.30801 -20.0709 -1.22537
-6.26699 -20.2242 -1.23318
-2.04607 -22.3103 -1.30488
-1.93714 -22.0989 -1.29205
-1.81745 -21.7378 -1.2705
-0.762988 -9.58988 -0.560311
-0.719619 -9.5292 -0.556591
-0.680371 -9.51885 -0.555823
-0.641221 -9.5085 -0.555065
-0.602178 -9.49818 -0.554316
-0.563232 -9.48787 -0.553577
-0.524404 -9.47756 -0.552848
-0.485664 -9.46725 -0.552129
-0.447051 -9.45727 -0.551437
-0.408535 -9.44758 -0.550772
-0.370205 -9.44035 -0.55026
-0.332061 -9.43656 -0.549957
-0.293975 -9.43277 -0.549662
-0.255918 -9.42895 -0.549375
-0.2179 -9.42512 -0.549096
-0.179922 -9.42127 -0.548826
-0.141973 -9.41742 -0.548563
-0.104082 -9.41354 -0.548309
-0.0661719 -9.4052 -0.547802
-0.0283301 -9.39443 -0.547165
0.00943359 -9.38873 -0.546831
0.0472266 -9.39949 -0.547464
0.0851074 -9.41027 -0.548107
0.123018 -9.41539 -0.54843
0.160938 -9.41926 -0.548689
0.198896 -9.42312 -0.548956
0.236895 -9.42697 -0.549231
0.274932 -9.4308 -0.549514
0.313008 -9.43461 -0.549805
0.351123 -9.43844 -0.550104
0.389287 -9.44252 -0.550431
0.427764 -9.45223 -0.551092
0.466318 -9.46193 -0.551763
0.505 -9.47223 -0.552476
0.543799 -9.48252 -0.5532
0.582676 -9.49285 -0.553934
0.62167 -9.50318 -0.554679
0.660762 -9.51352 -0.555433
0.699961 -9.52387 -0.556197
0.739268 -9.53424 -0.556971
0.896338 27.0176 -1.57446
0.787607 27.0174 -1.57425
0.678916 27.0172 -1.57407
-0.733301 27.0171 -1.57415
-0.842002 27.0173 -1.57434
-6.30415 -20.0586 -1.45857
-6.25825 -20.1961 -1.46672
-0.999814 -9.62418 -0.671223
-0.956113 -9.57805 -0.667731
-0.91248 -9.5283 -0.664002
-2.04521 -22.3008 -1.5535
-1.93612 -22.0874 -1.53808
-0.78583 -9.39893 -0.654278
-0.742256 -9.32932 -0.64922
-0.703779 -9.31947 -0.648333
-0.66541 -9.30965 -0.647458
-0.627139 -9.2998 -0.646593
-0.589004 -9.29051 -0.645777
-0.550977 -9.28125 -0.644974
-0.513037 -9.27199 -0.644183
-0.475176 -9.26273 -0.643402
-0.437412 -9.2535 -0.642632
-0.399736 -9.24426 -0.641873
-0.362314 -9.23926 -0.641421
-0.325 -9.23566 -0.641075
-0.287715 -9.23205 -0.640738
-0.250469 -9.2284 -0.640411
-0.213174 -9.22033 -0.639786
-0.175898 -9.21008 -0.639021
-0.138701 -9.19984 -0.638265
-0.101602 -9.18959 -0.637521
-0.0645801 -9.17936 -0.636788
-0.0276465 -9.1691 -0.636064
0.00920898 -9.16367 -0.635685
0.0460938 -9.17393 -0.636404
0.0830664 -9.18418 -0.637133
0.120127 -9.19443 -0.637872
0.157266 -9.20469 -0.638623
0.194502 -9.21494 -0.639383
0.231826 -9.22521 -0.640155
0.269082 -9.23016 -0.64057
0.306348 -9.23381 -0.640902
0.343643 -9.23742 -0.641244
0.380986 -9.24102 -0.641595
0.418545 -9.24867 -0.642238
0.45626 -9.25793 -0.643003
0.494072 -9.26721 -0.643779
0.531973 -9.27645 -0.644565
0.569971 -9.28572 -0.645363
0.608047 -9.29498 -0.646172
0.64625 -9.30455 -0.647013
0.68457 -9.31439 -0.647883
0.722988 -9.32426 -0.648765
0.761514 -9.33412 -0.649659
0.81041 -9.46389 -0.658913
0.901865 -9.62119 -0.670349
0.934092 -9.55164 -0.66576
0.977812 -9.60027 -0.669416
1.02163 -9.64563 -0.672861
-0.857305 -9.34789 -0.755792
-0.807754 -9.21478 -0.744762
-0.763965 -9.1374 -0.738253
-0.726289 -9.12857 -0.737299
-0.688701 -9.11977 -0.736357
-0.651211 -9.11096 -0.735428
-0.613809 -9.10213 -0.734511
-0.576504 -9.0933 -0.733606
-0.539297 -9.08449 -0.732714
-0.502168 -9.07566 -0.731833
-0.465127 -9.06684 -0.730965
-0.428174 -9.05803 -0.730109
-0.391318 -9.04965 -0.729304
-0.35457 -9.0418 -0.728548
-0.317822 -9.03205 -0.727654
-0.281182 -9.0223 -0.726772
-0.244619 -9.01254 -0.725901
-0.208135 -9.00279 -0.725043
-0.171748 -8.99305 -0.724196
-0.13543 -8.98328 -0.72336
-0.099209 -8.97353 -0.722537
-0.0630664 -8.96377 -0.721725
-0.027002 -8.95402 -0.720924
0.00898437 -8.94883 -0.720504
0.0450098 -8.95859 -0.7213
0.081123 -8.96838 -0.722107
0.117305 -8.97814 -0.722925
0.153564 -8.98789 -0.723755
0.189922 -8.99768 -0.724597
0.226348 -9.00744 -0.725451
0.262871 -9.01719 -0.726316
0.299473 -9.02693 -0.727193
0.336182 -9.0367 -0.728082
0.372969 -9.04646 -0.728983
0.409707 -9.05342 -0.729671
0.446621 -9.06225 -0.730521
0.483613 -9.07109 -0.731384
0.520703 -9.0799 -0.732259
0.557871 -9.08875 -0.733146
0.595137 -9.09758 -0.734045
0.63249 -9.10641 -0.734957
0.669932 -9.11521 -0.73588
0.707461 -9.12404 -0.736816
0.745098 -9.13289 -0.737765
0.783193 -9.14604 -0.739077
0.832002 -9.27719 -0.749939
-0.841201 -8.78393 -0.808973
-0.801357 -8.73797 -0.804436
-0.763027 -8.70459 -0.801074
-0.726201 -8.68572 -0.799064
-0.690566 -8.67959 -0.798237
-0.65499 -8.67342 -0.797421
-0.619492 -8.66721 -0.796615
-0.584063 -8.66098 -0.79582
-0.548701 -8.65473 -0.795036
-0.513398 -8.64842 -0.794262
-0.478184 -8.64211 -0.793499
-0.443086 -8.63723 -0.792879
-0.408066 -8.63256 -0.792294
-0.373086 -8.62785 -0.791718
-0.338154 -8.62313 -0.791153
-0.303271 -8.61836 -0.790598
-0.268447 -8.61357 -0.790053
-0.233652 -8.60875 -0.789518
-0.198916 -8.60389 -0.788993
-0.164219 -8.599 -0.788478
-0.129561 -8.59406 -0.787972
-0.0949512 -8.58912 -0.787477
-0.0603906 -8.5851 -0.787078
-0.0258691 -8.58141 -0.786724
0.00861328 -8.57941 -0.78654
0.043125 -8.58314 -0.78689
0.077666 -8.58684 -0.787251
0.112246 -8.59148 -0.787712
0.146885 -8.59643 -0.788213
0.181553 -8.60135 -0.788725
0.21627 -8.60623 -0.789246
0.251035 -8.61107 -0.789778
0.28584 -8.6159 -0.790319
0.320693 -8.6207 -0.79087
0.355605 -8.62547 -0.791431
0.390557 -8.63018 -0.792003
0.425557 -8.63488 -0.792584
0.460605 -8.63955 -0.793176
0.495781 -8.64525 -0.793876
0.531045 -8.65156 -0.794646
0.566367 -8.65785 -0.795426
0.601768 -8.66412 -0.796217
0.637236 -8.67033 -0.797018
0.672764 -8.67654 -0.79783
0.708369 -8.68271 -0.798653
0.744512 -8.69434 -0.799992
0.781934 -8.71891 -0.802535
0.820703 -8.75545 -0.806196
0.862637 -8.82105 -0.812549
-0.948154 -8.78322 -0.908722
-0.889648 -8.56373 -0.88564
-0.845273 -8.46762 -0.875341
-0.809463 -8.45258 -0.873441
-0.773809 -8.43754 -0.87156
-0.738301 -8.42254 -0.869697
-0.702939 -8.40758 -0.867853
-0.668359 -8.40053 -0.866839
-0.634062 -8.39625 -0.86613
-0.599814 -8.39195 -0.865432
-0.565635 -8.38766 -0.864745
-0.531504 -8.38332 -0.864071
-0.497412 -8.37895 -0.863408
-0.463389 -8.37479 -0.86278
-0.429512 -8.37258 -0.862368
-0.395664 -8.37037 -0.861969
-0.361855 -8.3681 -0.86158
-0.328027 -8.3649 -0.861106
-0.294228 -8.36135 -0.860612
-0.260469 -8.35775 -0.860128
-0.226748 -8.35414 -0.859656
-0.193057 -8.35051 -0.859194
-0.159404 -8.34686 -0.858745
-0.125781 -8.34314 -0.858307
-0.0921973 -8.33945 -0.85788
-0.0586523 -8.33682 -0.857579
-0.025127 -8.33418 -0.857289
0.00837891 -8.33275 -0.85714
0.0418848 -8.33543 -0.857424
0.0754199 -8.33807 -0.85772
0.108984 -8.34121 -0.858082
0.142578 -8.34492 -0.858515
0.176221 -8.34859 -0.858961
0.209893 -8.35227 -0.859416
0.243594 -8.3559 -0.859884
0.277334 -8.35949 -0.860362
0.311113 -8.36309 -0.860853
0.344932 -8.36664 -0.861355
0.37875 -8.36924 -0.861774
0.412578 -8.37148 -0.862168
0.446436 -8.37371 -0.862575
0.480371 -8.37674 -0.863078
0.514434 -8.38111 -0.863736
0.548545 -8.38547 -0.864405
0.582715 -8.38982 -0.865088
0.616934 -8.39412 -0.865781
0.651201 -8.3984 -0.866485
0.685527 -8.40266 -0.867202
0.720576 -8.41477 -0.868741
0.755996 -8.42975 -0.870596
0.791582 -8.44477 -0.872469
0.827314 -8.45982 -0.87436
0.863437 -8.4773 -0.876519
0.917227 -8.6598 -0.895765
-0.955938 -8.53373 -0.97958
-0.910996 -8.43896 -0.968275
-0.870039 -8.37494 -0.96052
-0.832832 -8.34301 -0.956467
-0.795947 -8.31135 -0.95246
-0.759346 -8.2799 -0.9485
-0.723564 -8.25434 -0.945232
-0.688232 -8.2316 -0.942302
-0.653769 -8.21717 -0.940341
-0.620322 -8.21437 -0.93973
-0.586924 -8.21158 -0.939133
-0.553564 -8.20877 -0.938549
-0.520244 -8.20594 -0.937979
-0.486963 -8.20309 -0.937422
-0.453721 -8.20023 -0.93688
-0.420478 -8.19672 -0.936276
-0.387178 -8.19059 -0.935393
-0.353926 -8.18459 -0.934538
-0.320859 -8.18197 -0.934084
-0.287832 -8.17934 -0.933642
-0.254824 -8.17666 -0.933213
-0.221855 -8.17396 -0.932797
-0.188916 -8.17127 -0.932393
-0.155996 -8.16854 -0.932003
-0.123105 -8.16578 -0.931624
-0.0902441 -8.16301 -0.931258
-0.0574121 -8.16023 -0.93091
-0.0245996 -8.15756 -0.930584
0.00819336 -8.15609 -0.930416
0.0409961 -8.15881 -0.930735
0.0738184 -8.16152 -0.931072
0.10667 -8.16434 -0.931431
0.139541 -8.16709 -0.931804
0.172441 -8.16984 -0.932189
0.205371 -8.17258 -0.932586
0.23833 -8.17527 -0.932997
0.271309 -8.17795 -0.93342
0.304326 -8.18062 -0.933856
0.337373 -8.18326 -0.934305
0.370518 -8.1874 -0.934941
0.403799 -8.19352 -0.935816
0.437119 -8.19877 -0.936609
0.470342 -8.20164 -0.937146
0.503604 -8.20449 -0.937696
0.536895 -8.20732 -0.938259
0.570234 -8.21016 -0.938836
0.603613 -8.21297 -0.939428
0.637041 -8.21574 -0.940032
0.670498 -8.21854 -0.940651
0.705859 -8.24295 -0.943762
0.741182 -8.26451 -0.946563
0.77752 -8.29467 -0.95037
0.814248 -8.32623 -0.954352
0.851289 -8.35803 -0.958383
0.889424 -8.39738 -0.963295
0.932246 -8.47625 -0.972766
-0.944287 -8.42969 -1.06298
-0.894853 -8.28943 -1.04484
-0.858633 -8.26519 -1.04134
-0.82291 -8.24365 -1.0382
-0.787402 -8.22225 -1.03509
-0.7521 -8.20092 -1.03202
-0.717021 -8.17973 -1.02898
-0.682129 -8.15865 -1.02598
-0.646377 -8.1242 -1.02131
-0.612559 -8.11148 -1.01939
-0.57915 -8.10277 -1.018
-0.546064 -8.09746 -1.01704
-0.513037 -8.09211 -1.01611
-0.480059 -8.08678 -1.01519
-0.447148 -8.08144 -1.01428
-0.414297 -8.07611 -1.0134
-0.381504 -8.07074 -1.01253
-0.34876 -8.06531 -1.01166
-0.316074 -8.05986 -1.01081
-0.283437 -8.05441 -1.00997
-0.25085 -8.04895 -1.00915
-0.218359 -8.04504 -1.00855
-0.185937 -8.04244 -1.00812
-0.153545 -8.03982 -1.0077
-0.121172 -8.03717 -1.0073
-0.0888281 -8.03453 -1.00692
-0.0565039 -8.03186 -1.00655
-0.024209 -8.02916 -1.00619
0.00806641 -8.02771 -1.006
0.0403516 -8.03043 -1.00635
0.0726563 -8.0331 -1.00672
0.10499 -8.03578 -1.0071
0.137344 -8.03842 -1.00749
0.169727 -8.04105 -1.0079
0.202129 -8.04369 -1.00832
0.23457 -8.04629 -1.00876
0.267119 -8.0515 -1.00954
0.299727 -8.05697 -1.01037
0.332393 -8.06244 -1.01121
0.365117 -8.06789 -1.01207
0.397881 -8.07328 -1.01294
0.430703 -8.07863 -1.01382
0.463594 -8.08398 -1.01472
0.496533 -8.08932 -1.01563
0.529521 -8.09465 -1.01656
0.562588 -8.09998 -1.0175
0.595703 -8.10531 -1.01846
0.629395 -8.11725 -1.02027
0.664141 -8.14053 -1.02353
0.699482 -8.16854 -1.0274
0.734463 -8.18969 -1.03042
0.769668 -8.21092 -1.03347
0.805059 -8.2323 -1.03656
0.840674 -8.25379 -1.03968
0.876504 -8.27539 -1.04284
0.917402 -8.34129 -1.0516
-0.941934 -8.40871 -1.15571
-0.892617 -8.26875 -1.13597
-0.855195 -8.23209 -1.13045
-0.818809 -8.2026 -1.12594
-0.782725 -8.17334 -1.12148
-0.746914 -8.1443 -1.11708
-0.711387 -8.11549 -1.11273
-0.676133 -8.08689 -1.10842
-0.642236 -8.07217 -1.10604
-0.608682 -8.0601 -1.10404
-0.575244 -8.04807 -1.10207
-0.541924 -8.03605 -1.10012
-0.508721 -8.02406 -1.09819
-0.475625 -8.01213 -1.09629
-0.44292 -8.00504 -1.09506
-0.410391 -7.99973 -1.0941
-0.3779 -7.99439 -1.09316
-0.345469 -7.98908 -1.09223
-0.313086 -7.98375 -1.09132
-0.280762 -7.97848 -1.09043
-0.248545 -7.97521 -1.08985
-0.216367 -7.97197 -1.08927
-0.184229 -7.96875 -1.08872
-0.152119 -7.96551 -1.08819
-0.120039 -7.96227 -1.08767
-0.0879883 -7.95904 -1.08717
-0.0559668 -7.95582 -1.08669
-0.0239746 -7.95262 -1.08623
0.00798828 -7.95088 -1.08599
0.0399707 -7.9541 -1.08645
0.0719727 -7.95732 -1.08692
0.104004 -7.96057 -1.08741
0.136074 -7.96377 -1.08791
0.168164 -7.96701 -1.08844
0.200283 -7.97025 -1.08898
0.232441 -7.9735 -1.08954
0.264639 -7.97672 -1.09012
0.296895 -7.98092 -1.09085
0.329248 -7.98627 -1.09175
0.36166 -7.9916 -1.09267
0.394111 -7.99691 -1.09361
0.426631 -8.00225 -1.09456
0.459209 -8.00752 -1.09552
0.492139 -8.01775 -1.09718
0.525273 -8.02969 -1.0991
0.558535 -8.04168 -1.10104
0.591904 -8.05371 -1.103
0.6254 -8.06578 -1.10499
0.659023 -8.07785 -1.107
0.693643 -8.10025 -1.11044
0.729023 -8.12895 -1.11477
0.764687 -8.15785 -1.11915
0.800635 -8.18701 -1.12358
0.836865 -8.21639 -1.12806
0.873389 -8.24602 -1.1326
0.915254 -8.32172 -1.1435
-0.938506 -8.37811 -1.24682
-0.892969 -8.27201 -1.23048
-0.85335 -8.21432 -1.22138
-0.817061 -8.18496 -1.21652
-0.78124 -8.15787 -1.21201
-0.746006 -8.13445 -1.20808
-0.711006 -8.11119 -1.20419
-0.67623 -8.08809 -1.20035
-0.642324 -8.07326 -1.19776
-0.608584 -8.05879 -1.19523
-0.57498 -8.04437 -1.19274
-0.541562 -8.03072 -1.19039
-0.508311 -8.0177 -1.18815
-0.475186 -8.00475 -1.18593
-0.442324 -7.99404 -1.18407
-0.409932 -7.9909 -1.18335
-0.377588 -7.98773 -1.18266
-0.345273 -7.98461 -1.18197
-0.312998 -7.98148 -1.18131
-0.280752 -7.97834 -1.18067
-0.248545 -7.97519 -1.18005
-0.216377 -7.97207 -1.17945
-0.184238 -7.96885 -1.17886
-0.152119 -7.96562 -1.17828
-0.120039 -7.96238 -1.17772
-0.0879883 -7.95916 -1.17718
-0.0559668 -7.95594 -1.17666
-0.0239746 -7.95271 -1.17616
0.00798828 -7.951 -1.1759
0.0399707 -7.95422 -1.17639
0.0719727 -7.95744 -1.1769
0.104004 -7.96066 -1.17743
0.136074 -7.96389 -1.17798
0.168164 -7.96713 -1.17855
0.200293 -7.97037 -1.17914
0.232451 -7.97355 -1.17973
0.264639 -7.97666 -1.18035
0.296855 -7.9798 -1.18098
0.329111 -7.98295 -1.18163
0.361406 -7.98607 -1.1823
0.39373 -7.98922 -1.18299
0.426104 -7.99236 -1.1837
0.458652 -7.99787 -1.18478
0.491709 -8.01082 -1.18698
0.524893 -8.02377 -1.1892
0.558193 -8.0368 -1.19145
0.591719 -8.05109 -1.19392
0.625381 -8.06555 -1.19642
0.659209 -8.08006 -1.19896
0.693525 -8.09887 -1.20215
0.728408 -8.12205 -1.20602
0.763525 -8.14537 -1.20993
0.798916 -8.16943 -1.21397
0.835068 -8.19869 -1.21881
0.871504 -8.22816 -1.2237
0.914854 -8.31814 -1.23762
-0.937178 -8.36623 -1.34054
-0.895264 -8.29322 -1.32826
-0.852754 -8.20857 -1.31414
-0.817021 -8.18465 -1.30977
-0.781533 -8.1609 -1.30545
-0.74627 -8.13729 -1.30119
-0.71124 -8.11383 -1.29697
-0.676455 -8.09082 -1.29285
-0.642617 -8.07697 -1.29021
-0.608857 -8.06238 -1.28748
-0.575225 -8.04783 -1.28478
-0.541738 -8.03338 -1.28211
-0.508389 -8.01894 -1.27947
-0.475176 -8.00459 -1.27687
-0.442285 -7.9933 -1.27477
-0.409902 -7.99023 -1.27401
-0.377559 -7.98717 -1.27327
-0.345254 -7.9841 -1.27255
-0.312979 -7.98105 -1.27185
-0.280742 -7.97803 -1.27118
-0.248545 -7.97496 -1.27052
-0.216377 -7.97193 -1.26989
-0.184238 -7.96891 -1.26928
-0.152129 -7.96588 -1.26869
-0.120049 -7.96283 -1.26812
-0.087998 -7.95982 -1.26757
-0.0559766 -7.95682 -1.26704
-0.0239844 -7.95381 -1.26654
0.00798828 -7.95219 -1.26628
0.0399707 -7.95519 -1.26677
0.0719824 -7.95822 -1.26729
0.104014 -7.96125 -1.26783
0.136074 -7.96426 -1.26838
0.168164 -7.96729 -1.26896
0.200293 -7.97031 -1.26956
0.232441 -7.97336 -1.27019
0.264629 -7.97639 -1.27083
0.296846 -7.97943 -1.27149
0.329092 -7.98248 -1.27218
0.361377 -7.98555 -1.27289
0.393701 -7.98859 -1.27362
0.426064 -7.99166 -1.27437
0.458594 -7.99697 -1.2755
0.491738 -8.01131 -1.27809
0.52501 -8.02566 -1.28071
0.558428 -8.04012 -1.28336
0.591973 -8.05463 -1.28605
0.625674 -8.0692 -1.28877
0.659512 -8.08383 -1.29152
0.69374 -8.10143 -1.29476
0.728643 -8.12479 -1.29895
0.763799 -8.1483 -1.30319
0.79916 -8.17199 -1.30749
0.834775 -8.19584 -1.31183
0.873008 -8.2424 -1.31983
0.920137 -8.36613 -1.34023
0.954199 -8.36627 -1.34085
-0.939395 -8.38596 -1.43976
-0.905264 -8.38584 -1.4391
-0.858398 -8.26297 -1.41741
-0.817598 -8.19037 -1.40438
-0.78208 -8.16658 -1.39975
-0.746728 -8.14227 -1.39506
-0.711484 -8.11654 -1.39015
-0.676562 -8.09213 -1.38549
-0.642832 -8.07967 -1.3829
-0.609219 -8.06727 -1.38035
-0.575732 -8.05492 -1.37783
-0.542363 -8.04254 -1.37533
-0.508975 -8.02809 -1.3725
-0.475723 -8.01369 -1.3697
-0.442676 -8.00049 -1.36712
-0.410254 -7.99713 -1.36626
-0.377871 -7.99377 -1.36542
-0.345527 -7.99045 -1.3646
-0.313213 -7.98711 -1.3638
-0.280947 -7.98379 -1.36303
-0.248711 -7.98045 -1.36228
-0.216514 -7.97721 -1.36157
-0.184355 -7.97418 -1.36091
-0.152227 -7.97115 -1.36028
-0.120127 -7.96811 -1.35967
-0.0880566 -7.96508 -1.35908
-0.0560156 -7.96207 -1.35851
-0.0239941 -7.95904 -1.35797
0.00799805 -7.95742 -1.35769
0.04 -7.96045 -1.35822
0.0720313 -7.96348 -1.35878
0.104082 -7.9665 -1.35935
0.136162 -7.96951 -1.35995
0.168281 -7.97256 -1.36057
0.20042 -7.97559 -1.36122
0.232598 -7.97871 -1.3619
0.264805 -7.98201 -1.36263
0.297061 -7.98533 -1.3634
0.329346 -7.98867 -1.36418
0.36167 -7.99201 -1.36499
0.394033 -7.99533 -1.36582
0.426436 -7.99869 -1.36667
0.459121 -8.00607 -1.36823
0.492295 -8.02043 -1.37101
0.525615 -8.03482 -1.37383
0.558994 -8.04838 -1.37652
0.592422 -8.0607 -1.37902
0.625977 -8.07309 -1.38156
0.659648 -8.08549 -1.38412
0.693867 -8.10293 -1.38758
0.728984 -8.12857 -1.39246
0.764326 -8.15398 -1.39733
0.799727 -8.17771 -1.40193
0.835703 -8.20496 -1.40717
0.880391 -8.31213 -1.42614
0.922305 -8.38586 -1.43942
-0.946113 -8.44604 -1.54718
-0.911699 -8.44553 -1.5464
-0.877314 -8.445 -1.54565
-0.842969 -8.44453 -1.54493
-0.808652 -8.44406 -1.54423
-0.774365 -8.44361 -1.54357
-0.740117 -8.44318 -1.54294
-0.709443 -8.48533 -1.55011
-0.709443 -8.91697 -1.62843
0.710459 -8.70822 -1.59056
0.722978 -8.44293 -1.54262
0.757217 -8.44334 -1.54324
0.791484 -8.44375 -1.54389
0.825781 -8.44422 -1.54456
0.860117 -8.44469 -1.54527
0.894482 -8.44516 -1.546
0.928887 -8.44568 -1.54677
0.544951 0.901543 -0.36698
0.539717 0.901035 -0.365893
0.534482 0.900488 -0.364793
0.529238 0.899883 -0.363681
0.523994 0.899219 -0.362558
0.51875 0.898496 -0.361423
0.513496 0.897715 -0.360277
0.508252 0.896895 -0.35912
0.502998 0.895977 -0.357953
0.497744 0.895039 -0.356776
0.4925 0.894062 -0.355589
0.487256 0.893008 -0.354392
0.482021 0.891914 -0.353186
0.476787 0.890781 -0.351971
0.471553 0.88959 -0.350747
0.466328 0.88834 -0.349515
0.461113 0.887051 -0.348275
0.455898 0.885703 -0.347026
0.450703 0.884336 -0.345771
0.445508 0.882891 -0.344508
0.440322 0.881426 -0.343238
0.435156 0.879902 -0.341961
0.42999 0.87834 -0.340678
0.393721 0.8125 -0.314528
0.391211 0.815664 -0.315138
0.388672 0.818789 -0.315737
0.386094 0.821855 -0.316323
0.383477 0.824902 -0.316897
0.38083 0.827891 -0.317458
0.378154 0.830859 -0.318006
0.375439 0.83375 -0.318542
0.372695 0.836621 -0.319065
0.369922 0.839453 -0.319574
0.367109 0.842246 -0.32007
0.364277 0.84498 -0.320553
0.361396 0.847676 -0.321022
0.358486 0.850332 -0.321477
0.355557 0.85293 -0.321917
0.352588 0.855488 -0.322345
0.3496 0.858008 -0.322758
0.346924 0.861328 -0.323481
0.345059 0.866719 -0.324987
0.343154 0.872129 -0.326489
0.341201 0.8775 -0.327986
0.339199 0.882852 -0.329476
0.337168 0.888203 -0.330961
0.335088 0.893516 -0.332439
0.332959 0.898828 -0.333911
0.330781 0.904102 -0.335376
0.328574 0.909355 -0.336833
0.326299 0.91459 -0.338282
0.323994 0.919805 -0.339723
0.32165 0.92498 -0.341156
0.319258 0.930117 -0.342579
0.316816 0.935254 -0.343992
0.314336 0.940332 -0.345396
0.311807 0.945391 -0.34679
0.309229 0.95041 -0.348173
0.0746484 2.25004 -0.784258
0.0655273 2.24781 -0.783384
0.0564258 2.24547 -0.782486
0.0473437 2.24305 -0.781566
0.0382813 2.24051 -0.780622
0.0292383 2.23787 -0.779655
0.0202148 2.23514 -0.778665
0.0112109 2.23229 -0.777653
0.00223633 2.22936 -0.776618
-0.00672852 2.23084 -0.777138
-0.0157129 2.23371 -0.778161
-0.0247266 2.2365 -0.779163
-0.0337598 2.2392 -0.780141
-0.0428125 2.24178 -0.781097
-0.0518848 2.24428 -0.782029
-0.0609766 2.24666 -0.782938
-0.0700879 2.24893 -0.783824
-0.0792187 2.25111 -0.784686
-0.310527 0.947891 -0.347482
-0.313076 0.942852 -0.346094
-0.315586 0.937793 -0.344695
-0.318047 0.932676 -0.343286
-0.320469 0.927559 -0.341867
-0.322842 0.922383 -0.340439
-0.325166 0.917187 -0.339003
-0.327451 0.911973 -0.337558
-0.329678 0.906738 -0.336104
-0.331875 0.901465 -0.334644
-0.334023 0.896172 -0.333176
-0.336133 0.890859 -0.3317
-0.338193 0.885527 -0.330219
-0.340215 0.880176 -0.328731
-0.342187 0.874805 -0.327237
-0.344121 0.869434 -0.325738
-0.346006 0.864023 -0.324234
-0.348105 0.859238 -0.322958
-0.351113 0.856758 -0.322553
-0.354092 0.854219 -0.322132
-0.357041 0.851641 -0.321698
-0.359961 0.849023 -0.32125
-0.362852 0.846348 -0.320788
-0.365693 0.843633 -0.320312
-0.368516 0.840859 -0.319823
-0.371318 0.838066 -0.319321
-0.374072 0.835215 -0.318804
-0.376807 0.832324 -0.318275
-0.379502 0.829375 -0.317733
-0.382158 0.826406 -0.317178
-0.384795 0.823379 -0.316611
-0.387383 0.820332 -0.316031
-0.389951 0.817227 -0.315438
-0.39248 0.814082 -0.314834
-0.394971 0.810898 -0.314217
-0.432578 0.879102 -0.341319
-0.437744 0.880664 -0.342599
-0.44292 0.882148 -0.343872
-0.448105 0.883613 -0.345139
-0.453301 0.88502 -0.346398
-0.458506 0.886387 -0.34765
-0.463721 0.887695 -0.348894
-0.468945 0.888965 -0.350131
-0.47417 0.890195 -0.351359
-0.479404 0.891367 -0.352578
-0.484639 0.89248 -0.353789
-0.489883 0.893555 -0.35499
-0.495127 0.89457 -0.356182
-0.500371 0.895527 -0.357364
-0.505625 0.896445 -0.358537
-0.510869 0.897305 -0.359698
-0.516123 0.898105 -0.36085
-0.521367 0.898867 -0.36199
-0.526611 0.899531 -0.363119
-0.531855 0.900176 -0.364236
-0.5371 0.900762 -0.365342
-0.542334 0.901289 -0.366436
0.534014 0.780605 -0.341273
0.529805 0.781172 -0.340586
0.525576 0.78168 -0.339886
0.521338 0.782148 -0.339173
0.51707 0.782559 -0.338447
0.512793 0.78291 -0.337709
0.508516 0.783223 -0.336959
0.504219 0.783457 -0.336196
0.499912 0.783672 -0.335422
0.495586 0.783848 -0.334635
0.49126 0.783945 -0.333838
0.486924 0.784023 -0.333028
0.482578 0.784043 -0.332209
0.478223 0.784004 -0.331377
0.391113 0.647031 -0.27281
0.389473 0.650215 -0.273493
0.387812 0.653379 -0.274168
0.386113 0.656543 -0.274837
0.384395 0.659668 -0.275498
0.382646 0.662773 -0.276152
0.380869 0.665859 -0.276798
0.379063 0.668926 -0.277437
0.377227 0.671973 -0.278067
0.375361 0.67498 -0.278691
0.373467 0.677969 -0.279306
0.371553 0.680957 -0.279913
0.3696 0.683887 -0.280512
0.367617 0.686816 -0.281102
0.365605 0.689707 -0.281684
0.363574 0.692578 -0.282257
0.361504 0.69543 -0.282821
0.359414 0.698242 -0.283376
0.357285 0.701035 -0.283922
0.355137 0.703789 -0.284459
0.352959 0.706523 -0.284987
0.350752 0.709219 -0.285505
0.348525 0.711895 -0.286013
0.34626 0.714531 -0.286513
0.343975 0.717148 -0.287002
0.341641 0.719727 -0.287481
0.339307 0.722266 -0.28795
0.336934 0.724785 -0.288409
0.334541 0.727246 -0.288858
0.332109 0.729707 -0.289296
0.329668 0.732109 -0.289724
0.327187 0.734492 -0.290141
0.324687 0.736836 -0.290547
0.322168 0.739141 -0.290943
0.319609 0.741406 -0.291328
0.317031 0.743633 -0.291702
0.314434 0.74582 -0.292064
0.311807 0.747988 -0.292416
0.30916 0.750098 -0.292757
0.306484 0.752187 -0.293085
0.303789 0.754238 -0.293403
0.301064 0.75623 -0.293709
0.29832 0.758203 -0.294003
0.295557 0.760117 -0.294286
0.292773 0.762012 -0.294557
0.289961 0.763848 -0.294816
0.287129 0.765644 -0.295063
0.284902 0.769102 -0.295947
0.282861 0.773125 -0.297057
0.280791 0.777129 -0.29816
0.278682 0.781113 -0.299256
0.276533 0.785078 -0.300344
0.274365 0.789004 -0.301424
0.272148 0.79291 -0.302496
0.269912 0.796797 -0.303559
0.267627 0.800645 -0.304614
0.265322 0.804453 -0.30566
0.262969 0.808262 -0.306697
0.260596 0.812012 -0.307724
0.258174 0.815742 -0.308741
0.255723 0.819434 -0.309748
0.253242 0.823105 -0.310745
0.250723 0.826738 -0.311731
0.248174 0.830312 -0.312706
0.245596 0.833848 -0.31367
0.242969 0.837363 -0.314622
0.240322 0.84084 -0.315563
0.237637 0.844277 -0.316491
0.234912 0.847676 -0.317407
0.232158 0.851035 -0.318311
0.229375 0.854336 -0.319201
0.226562 0.857617 -0.320079
0.223721 0.86084 -0.320943
0.22084 0.864004 -0.321794
0.21793 0.867129 -0.32263
0.21499 0.870215 -0.323452
0.212012 0.873242 -0.324259
0.209014 0.87623 -0.325052
0.205986 0.87916 -0.32583
0.20292 0.882051 -0.326593
0.199834 0.884883 -0.327339
0.196709 0.887656 -0.328071
0.193604 0.890566 -0.328856
0.190479 0.893477 -0.329651
0.187324 0.896367 -0.330429
0.18415 0.89918 -0.331193
0.180937 0.901934 -0.33194
0.177705 0.904648 -0.332672
0.174443 0.907305 -0.333387
0.171152 0.909902 -0.334086
0.167822 0.912441 -0.334767
0.164482 0.914922 -0.335432
0.161113 0.917344 -0.33608
0.157715 0.919707 -0.33671
0.154297 0.922012 -0.337322
0.150859 0.924238 -0.337916
0.147393 0.926426 -0.338493
0.143906 0.928535 -0.339051
0.1404 0.930586 -0.339591
0.136865 0.932578 -0.340112
0.133311 0.934492 -0.340613
0.129736 0.936348 -0.341096
0.126143 0.938145 -0.34156
0.122529 0.939863 -0.342004
0.118896 0.941484 -0.342428
0.115244 0.943066 -0.342833
0.111582 0.94459 -0.343217
0.1079 0.946035 -0.343583
0.104199 0.947402 -0.343927
0.100488 0.948711 -0.344251
0.0967578 0.949941 -0.344555
0.0930078 0.951113 -0.344839
0.0892578 0.952207 -0.345101
0.0854883 0.953223 -0.345343
0.081709 0.95416 -0.345564
0.0779199 0.955039 -0.345764
0.0741113 0.95584 -0.345943
0.0703027 0.956582 -0.346101
0.0664844 0.957227 -0.346237
0.0626562 0.957812 -0.346353
0.0588184 0.95832 -0.346447
0.0549805 0.95875 -0.34652
0.0511328 0.959102 -0.346572
0.0472852 0.959375 -0.346602
0.0434277 0.95959 -0.346611
0.0395703 0.959727 -0.346599
0.0357031 0.959785 -0.346565
0.0318457 0.959766 -0.346511
0.0279785 0.959668 -0.346434
0.0241113 0.959512 -0.346337
0.0202441 0.959277 -0.346218
0.0163867 0.958945 -0.346077
0.0125195 0.958574 -0.345916
0.00866211 0.958105 -0.345734
0.00481445 0.957734 -0.345588
0.000957031 0.957637 -0.345552
-0.00289063 0.957695 -0.345572
-0.00673828 0.957852 -0.345635
-0.0105957 0.95834 -0.345828
-0.0144531 0.95875 -0.346
-0.0183203 0.959102 -0.34615
-0.0221777 0.959395 -0.34628
-0.0260449 0.95959 -0.346388
-0.0299121 0.959727 -0.346475
-0.0337793 0.959766 -0.346541
-0.0376367 0.959746 -0.346585
-0.0414941 0.959668 -0.346608
-0.0453613 0.959492 -0.34661
-0.049209 0.959238 -0.34659
-0.0530566 0.958926 -0.346549
-0.0569043 0.958535 -0.346486
-0.0607422 0.958066 -0.346403
-0.0645703 0.95752 -0.346298
-0.0683984 0.956914 -0.346172
-0.0722168 0.956211 -0.346024
-0.0760156 0.955449 -0.345856
-0.0798144 0.954629 -0.345666
-0.0836035 0.953711 -0.345456
-0.087373 0.952734 -0.345224
-0.0911426 0.95168 -0.344972
-0.0948926 0.950547 -0.344699
-0.098623 0.949355 -0.344406
-0.102354 0.948086 -0.344091
-0.106055 0.946738 -0.343757
-0.109746 0.945332 -0.343403
-0.113428 0.943848 -0.343028
-0.11708 0.942305 -0.342633
-0.120723 0.940684 -0.342218
-0.124346 0.939004 -0.341784
-0.127949 0.937246 -0.34133
-0.131533 0.93543 -0.340856
-0.135098 0.933535 -0.340364
-0.138643 0.931562 -0.339853
-0.142168 0.929551 -0.339323
-0.145664 0.92748 -0.338774
-0.149141 0.925332 -0.338207
-0.152598 0.923125 -0.337621
-0.156025 0.920859 -0.337018
-0.159434 0.918516 -0.336397
-0.162813 0.916133 -0.335758
-0.166172 0.913672 -0.335102
-0.169502 0.911172 -0.334428
-0.172793 0.908594 -0.333738
-0.176074 0.905977 -0.333031
-0.179326 0.903301 -0.332308
-0.182549 0.900566 -0.331568
-0.185742 0.897773 -0.330813
-0.188906 0.894922 -0.330041
-0.192051 0.892031 -0.329255
-0.195156 0.889082 -0.328453
-0.198281 0.88627 -0.327707
-0.201387 0.883477 -0.326967
-0.204463 0.880605 -0.326213
-0.20751 0.877715 -0.325443
-0.210527 0.874746 -0.324658
-0.213516 0.871738 -0.323857
-0.216475 0.868691 -0.323042
-0.219395 0.865586 -0.322213
-0.222295 0.862441 -0.32137
-0.225156 0.859238 -0.320513
-0.227988 0.855996 -0.319642
-0.230791 0.852695 -0.318757
-0.233555 0.849375 -0.31786
-0.236279 0.845996 -0.31695
-0.238984 0.842578 -0.316028
-0.24165 0.839121 -0.315093
-0.244287 0.835625 -0.314147
-0.246885 0.83209 -0.313188
-0.249453 0.828516 -0.312219
-0.251992 0.824922 -0.311239
-0.254492 0.82127 -0.310247
-0.256963 0.817598 -0.309245
-0.259395 0.813887 -0.308233
-0.261797 0.810137 -0.307211
-0.26416 0.806367 -0.306179
-0.266494 0.802539 -0.305138
-0.268789 0.798691 -0.304088
-0.271045 0.794844 -0.303028
-0.273271 0.790937 -0.301961
-0.275469 0.787031 -0.300884
-0.277627 0.783086 -0.2998
-0.279736 0.779102 -0.298709
-0.281826 0.775117 -0.297609
-0.283887 0.771094 -0.296503
-0.285908 0.767051 -0.295389
-0.288545 0.764746 -0.29494
-0.291367 0.76291 -0.294687
-0.29417 0.761055 -0.294422
-0.296943 0.75916 -0.294145
-0.299707 0.757207 -0.293857
-0.302432 0.755234 -0.293557
-0.305146 0.753203 -0.293245
-0.307832 0.751152 -0.292921
-0.310498 0.749043 -0.292587
-0.313135 0.746914 -0.292241
-0.315742 0.744727 -0.291884
-0.31834 0.742519 -0.291516
-0.320898 0.740273 -0.291136
-0.323437 0.737988 -0.290746
-0.325957 0.735664 -0.290345
-0.328438 0.733301 -0.289933
-0.330908 0.730918 -0.28951
-0.33334 0.728477 -0.289077
-0.335752 0.726016 -0.288634
-0.338135 0.723535 -0.28818
-0.340488 0.720996 -0.287716
-0.342822 0.718437 -0.287242
-0.345117 0.71584 -0.286757
-0.347393 0.713223 -0.286264
-0.349639 0.710566 -0.28576
-0.351865 0.707891 -0.285246
-0.354053 0.705176 -0.284723
-0.356221 0.702422 -0.284191
-0.358359 0.699648 -0.28365
-0.360469 0.696855 -0.283099
-0.362549 0.694023 -0.282539
-0.3646 0.691172 -0.28197
-0.366621 0.688281 -0.281393
-0.368613 0.685371 -0.280807
-0.370586 0.682441 -0.280212
-0.37252 0.679473 -0.27961
-0.374434 0.676484 -0.278999
-0.376309 0.673477 -0.278379
-0.378164 0.670449 -0.277753
-0.37998 0.667402 -0.277117
-0.381777 0.664316 -0.276475
-0.383535 0.66123 -0.275825
-0.385273 0.658105 -0.275167
-0.386982 0.654961 -0.274502
-0.388643 0.651797 -0.27383
-0.390293 0.648633 -0.273152
-0.391914 0.64543 -0.272466
-0.48041 0.784023 -0.331793
-0.484766 0.784043 -0.332619
-0.489102 0.784004 -0.333432
-0.493437 0.783906 -0.334236
-0.497764 0.783769 -0.335028
-0.50208 0.783594 -0.335809
-0.506377 0.783359 -0.336577
-0.510664 0.783066 -0.337333
-0.514951 0.782734 -0.338078
-0.519209 0.782344 -0.33881
-0.523447 0.781895 -0.339529
-0.527686 0.781406 -0.340236
-0.531904 0.780859 -0.340929
-0.536113 0.780273 -0.34161
0.528623 0.669551 -0.318553
0.525352 0.670937 -0.318204
0.522061 0.672285 -0.317842
0.51874 0.673574 -0.317467
0.5154 0.674844 -0.31708
0.512031 0.676055 -0.316679
0.508643 0.677227 -0.316267
0.433965 0.582637 -0.271283
0.428906 0.580703 -0.269577
0.423887 0.57877 -0.267885
0.418926 0.576836 -0.26621
0.414004 0.574902 -0.264548
0.409121 0.572969 -0.262901
0.404287 0.571055 -0.261269
0.399502 0.569121 -0.259652
0.394756 0.567207 -0.258049
0.390752 0.566289 -0.256918
0.387998 0.567168 -0.256604
0.385537 0.568457 -0.256481
0.383057 0.569727 -0.256357
0.380732 0.571211 -0.256337
0.378428 0.572715 -0.256327
0.376104 0.574199 -0.256316
0.37377 0.575664 -0.256304
0.371436 0.577148 -0.256291
0.369092 0.578594 -0.256278
0.366748 0.580039 -0.256263
0.364385 0.581484 -0.256248
0.362021 0.58291 -0.256231
0.359658 0.584316 -0.256214
0.357275 0.585723 -0.256196
0.354893 0.587109 -0.256177
0.35251 0.588477 -0.256158
0.350107 0.589844 -0.256137
0.347695 0.591191 -0.256115
0.345283 0.592539 -0.256093
0.342871 0.593867 -0.256069
0.34085 0.595879 -0.256347
0.33915 0.598496 -0.256876
0.337432 0.601074 -0.257399
0.335684 0.603633 -0.257915
0.333906 0.606172 -0.258423
0.332109 0.608691 -0.258925
0.330293 0.611172 -0.259421
0.328447 0.613652 -0.259908
0.326582 0.616113 -0.260389
0.324697 0.618535 -0.260862
0.322783 0.620937 -0.261327
0.32084 0.62332 -0.261785
0.318887 0.625684 -0.262236
0.316904 0.628027 -0.262678
0.314893 0.630332 -0.263113
0.312861 0.632617 -0.263539
0.310811 0.634883 -0.263958
0.30874 0.637109 -0.264369
0.306641 0.639316 -0.264771
0.304521 0.641504 -0.265165
0.302373 0.643652 -0.265551
0.300215 0.645781 -0.265928
0.298027 0.647871 -0.266297
0.29582 0.649941 -0.266657
0.293594 0.651992 -0.267007
0.291338 0.654004 -0.26735
0.289062 0.655996 -0.267684
0.286768 0.657949 -0.268007
0.284453 0.659863 -0.268323
0.282129 0.661758 -0.26863
0.279775 0.663613 -0.268927
0.277402 0.665449 -0.269215
0.27501 0.667246 -0.269494
0.272598 0.669023 -0.269763
0.270166 0.670762 -0.270023
0.267715 0.672461 -0.270273
0.265244 0.674141 -0.270514
0.262754 0.675762 -0.270745
0.260254 0.677383 -0.270967
0.257725 0.678945 -0.271178
0.255186 0.680488 -0.27138
0.252627 0.681992 -0.271573
0.250049 0.683457 -0.271755
0.247461 0.684863 -0.271928
0.244854 0.68627 -0.27209
0.242227 0.687637 -0.272243
0.23958 0.688965 -0.272386
0.236924 0.690254 -0.272518
0.234863 0.693301 -0.273345
0.232773 0.696348 -0.274171
0.230664 0.699355 -0.27499
0.228516 0.702344 -0.275801
0.226348 0.705293 -0.276603
0.22416 0.708223 -0.277397
0.221934 0.711133 -0.278182
0.219687 0.714004 -0.278958
0.217412 0.716855 -0.279725
0.215098 0.719668 -0.280484
0.212773 0.722441 -0.281233
0.21042 0.725195 -0.281972
0.208037 0.72793 -0.282702
0.205635 0.730605 -0.283422
0.203203 0.733262 -0.284132
0.200742 0.735879 -0.284831
0.198262 0.738457 -0.28552
0.195762 0.741016 -0.286198
0.193232 0.743516 -0.286866
0.190723 0.746172 -0.287589
0.188184 0.748789 -0.288302
0.185625 0.751367 -0.289005
0.183037 0.753906 -0.289696
0.18043 0.756406 -0.290377
0.177803 0.758867 -0.291047
0.175146 0.761289 -0.291706
0.172461 0.763691 -0.292353
0.169756 0.766035 -0.292988
0.167031 0.76834 -0.293611
0.164287 0.770605 -0.294222
0.161514 0.772832 -0.294822
0.158721 0.77502 -0.295409
0.155908 0.777168 -0.295984
0.153076 0.779258 -0.296546
0.150215 0.781309 -0.297095
0.147334 0.78332 -0.29763
0.144434 0.785273 -0.298153
0.141514 0.787207 -0.298663
0.138584 0.789062 -0.299158
0.135625 0.790898 -0.299641
0.132656 0.792676 -0.300109
0.129668 0.794394 -0.300564
0.12665 0.796074 -0.301005
0.123633 0.797715 -0.301431
0.120586 0.799297 -0.301843
0.117529 0.800801 -0.30224
0.114453 0.802285 -0.302623
0.111357 0.803711 -0.302992
0.108252 0.805098 -0.303345
0.105137 0.806426 -0.303684
0.102002 0.807695 -0.304007
0.0988574 0.808926 -0.304315
0.0956934 0.810098 -0.304608
0.0925195 0.811211 -0.304885
0.0893359 0.812285 -0.305148
0.0861426 0.813281 -0.305394
0.0829492 0.814414 -0.30569
0.0797559 0.815605 -0.306013
0.0765527 0.816738 -0.306323
0.0733398 0.817832 -0.306618
0.0701172 0.818867 -0.306899
0.0668848 0.819863 -0.307166
0.0636426 0.820801 -0.307419
0.0603906 0.82168 -0.307657
0.0571289 0.82252 -0.307881
0.0538574 0.823301 -0.30809
0.0505762 0.824043 -0.308285
0.0472949 0.824707 -0.308465
0.0440039 0.825332 -0.308631
0.0407031 0.825918 -0.308781
0.0374023 0.826426 -0.308917
0.0340918 0.826895 -0.309038
0.0307715 0.827324 -0.309144
0.0274609 0.827676 -0.309236
0.0241406 0.827988 -0.309312
0.0208105 0.828242 -0.309373
0.0174805 0.828438 -0.309419
0.0141602 0.828594 -0.309451
0.0108301 0.828691 -0.309467
0.00749023 0.82873 -0.309468
0.00416016 0.828711 -0.309455
0.000830078 0.828652 -0.309426
-0.0025 0.828691 -0.309442
-0.00583008 0.82873 -0.309464
-0.00916016 0.828691 -0.30947
-0.0124902 0.828633 -0.309461
-0.0158203 0.828516 -0.309437
-0.0191504 0.82834 -0.309398
-0.0224805 0.828105 -0.309344
-0.0258008 0.827832 -0.309276
-0.0291211 0.8275 -0.309191
-0.0324414 0.827109 -0.309093
-0.035752 0.82666 -0.308979
-0.0390527 0.826172 -0.308851
-0.0423535 0.825625 -0.308708
-0.0456543 0.82502 -0.30855
-0.0489453 0.824375 -0.308377
-0.0522266 0.823672 -0.30819
-0.055498 0.82291 -0.307988
-0.0587598 0.822109 -0.307771
-0.0620215 0.82125 -0.30754
-0.0652734 0.820332 -0.307294
-0.0685059 0.819375 -0.307035
-0.0717383 0.818359 -0.30676
-0.0749609 0.817305 -0.306472
-0.0781641 0.816191 -0.30617
-0.0813672 0.815019 -0.305853
-0.0845508 0.813809 -0.305523
-0.0877441 0.812793 -0.305273
-0.0909375 0.811758 -0.305018
-0.0941211 0.810664 -0.304749
-0.0972852 0.809531 -0.304463
-0.100439 0.80832 -0.304162
-0.103574 0.80709 -0.303847
-0.106709 0.805781 -0.303516
-0.109824 0.804434 -0.30317
-0.11292 0.803027 -0.302809
-0.116006 0.801562 -0.302434
-0.119072 0.800059 -0.302043
-0.122119 0.798516 -0.301638
-0.125156 0.796894 -0.301219
-0.128174 0.795254 -0.300786
-0.131172 0.793535 -0.300339
-0.13416 0.791797 -0.299877
-0.137119 0.78998 -0.299401
-0.140068 0.788125 -0.298912
-0.142998 0.78623 -0.298409
-0.145898 0.784297 -0.297893
-0.148789 0.782305 -0.297364
-0.151641 0.780273 -0.296821
-0.154492 0.778203 -0.296266
-0.157314 0.776074 -0.295698
-0.160117 0.773926 -0.295116
-0.1629 0.771719 -0.294524
-0.165664 0.769473 -0.293918
-0.168398 0.767187 -0.293301
-0.171113 0.764863 -0.292672
-0.173809 0.76248 -0.29203
-0.176475 0.760078 -0.291378
-0.179121 0.757637 -0.290713
-0.181738 0.755156 -0.290038
-0.184336 0.752637 -0.289351
-0.186914 0.750078 -0.288654
-0.189463 0.74748 -0.287947
-0.191982 0.744844 -0.287229
-0.194502 0.742266 -0.286533
-0.197021 0.739746 -0.28586
-0.199521 0.737168 -0.285177
-0.201992 0.73457 -0.284482
-0.204434 0.731934 -0.283778
-0.206855 0.729277 -0.283063
-0.209248 0.726562 -0.282338
-0.211611 0.723828 -0.281604
-0.213955 0.721074 -0.280859
-0.21627 0.718262 -0.280105
-0.218555 0.715449 -0.279343
-0.220811 0.712578 -0.27857
-0.223047 0.709687 -0.27779
-0.225254 0.706777 -0.277
-0.227441 0.703828 -0.276202
-0.2296 0.700859 -0.275396
-0.231729 0.697871 -0.274581
-0.233828 0.694844 -0.273759
-0.235898 0.691797 -0.272929
-0.238262 0.689629 -0.272452
-0.240908 0.68832 -0.272314
-0.243545 0.686973 -0.272167
-0.246162 0.685586 -0.272009
-0.24876 0.68418 -0.271842
-0.251348 0.682734 -0.271665
-0.253916 0.68123 -0.271477
-0.256465 0.679727 -0.27128
-0.258994 0.678164 -0.271073
-0.261514 0.676582 -0.270856
-0.264014 0.674961 -0.27063
-0.266494 0.673281 -0.270394
-0.268945 0.671602 -0.270149
-0.271396 0.669883 -0.269893
-0.273818 0.668125 -0.269629
-0.276221 0.666348 -0.269355
-0.278604 0.664531 -0.269071
-0.280967 0.662676 -0.268779
-0.283311 0.660801 -0.268477
-0.285635 0.658887 -0.268166
-0.28793 0.656953 -0.267846
-0.290215 0.65498 -0.267517
-0.292471 0.652988 -0.267179
-0.294707 0.650957 -0.266832
-0.296924 0.648906 -0.266477
-0.299121 0.646816 -0.266113
-0.301299 0.644707 -0.265739
