ply
format ascii 1.0
comment Created by Open3D
element vertex 1866
property float x
property float y
property float z
end_header
-3.69499 -5.24142 -1.6898
-3.6739 -5.25622 -1.6898
-3.65273 -5.27095 -1.6898
-3.63151 -5.2856 -1.6898
-3.61023 -5.30015 -1.6898
-3.5889 -5.31462 -1.6898
-3.56751 -5.329 -1.6898
-3.54604 -5.34331 -1.6898
-3.52454 -5.35752 -1.6898
-3.50298 -5.37163 -1.6898
-3.48136 -5.38568 -1.6898
-3.45968 -5.39963 -1.6898
-3.43795 -5.4135 -1.6898
-3.41616 -5.42727 -1.6898
-3.39431 -5.44096 -1.6898
-3.37241 -5.45456 -1.6898
-3.35046 -5.46807 -1.6898
-3.32845 -5.4815 -1.6898
-3.30638 -5.49483 -1.6898
-3.28427 -5.50809 -1.6898
-3.2621 -5.52123 -1.6898
-3.23988 -5.53431 -1.6898
-3.2176 -5.5473 -1.6898
-3.19527 -5.56018 -1.6898
-3.1729 -5.57298 -1.6898
-2.58112 -4.57626 -1.38443
-2.54818 -4.56061 -1.37658
-2.51562 -4.54512 -1.36884
-2.4834 -4.5298 -1.36121
-2.45154 -4.51466 -1.35369
-2.41998 -4.49959 -1.34624
-2.38877 -4.48465 -1.33889
-2.35789 -4.46988 -1.33164
-2.3272 -4.45503 -1.32442
-2.29635 -4.43936 -1.317
-2.26527 -4.42277 -1.30937
-2.23435 -4.40594 -1.30172
-2.20376 -4.38929 -1.29417
-2.17354 -4.37284 -1.28673
-2.14363 -4.35654 -1.27939
-2.11404 -4.34035 -1.27213
-2.08479 -4.32435 -1.26497
-2.05585 -4.30853 -1.25792
-2.03456 -4.30837 -1.25548
-1.9968 -4.27283 -1.24277
-1.9698 -4.2596 -1.23661
-1.94306 -4.2465 -1.23053
-1.91657 -4.23354 -1.22453
-1.89044 -4.22088 -1.21866
-1.86476 -4.2088 -1.213
-1.8393 -4.19684 -1.20741
-1.81409 -4.18499 -1.20189
-1.78922 -4.17351 -1.19652
-1.76463 -4.16226 -1.19125
-1.73986 -4.15021 -1.18579
-1.7153 -4.13819 -1.18038
-1.69096 -4.12628 -1.17503
-1.66683 -4.11446 -1.16975
-1.64292 -4.10274 -1.16453
-1.61921 -4.09115 -1.15938
-1.59573 -4.07965 -1.1543
-1.57243 -4.06822 -1.14926
-1.54933 -4.05688 -1.14429
-1.52643 -4.04563 -1.13938
-1.50372 -4.03447 -1.13453
-1.48122 -4.02344 -1.12974
-1.4589 -4.01247 -1.125
-1.43675 -4.00161 -1.12033
-1.4148 -3.99081 -1.11571
-1.39302 -3.98014 -1.11114
-1.37142 -3.96952 -1.10663
-1.34999 -3.95898 -1.10218
-1.32874 -3.94853 -1.09777
-1.30766 -3.93817 -1.09342
-1.28673 -3.92789 -1.08912
-1.26597 -3.9177 -1.08487
-1.24536 -3.90756 -1.08067
-1.22493 -3.89751 -1.07652
-1.20464 -3.88753 -1.07242
-1.18451 -3.87763 -1.06836
-1.16452 -3.86778 -1.06435
-1.14469 -3.858 -1.06039
-1.125 -3.84829 -1.05647
-1.10544 -3.83866 -1.05259
-1.08604 -3.82909 -1.04876
-1.06676 -3.81956 -1.04497
-1.04762 -3.81009 -1.04122
-1.02862 -3.80066 -1.0375
-1.00975 -3.79132 -1.03384
-0.991006 -3.78203 -1.03021
-0.972412 -3.7728 -1.02662
-0.953926 -3.76364 -1.02308
-0.935576 -3.75455 -1.01958
-0.917344 -3.7455 -1.01611
-0.899238 -3.73652 -1.01269
-0.88127 -3.72761 -1.0093
-0.863389 -3.71876 -1.00595
-0.845645 -3.70994 -1.00264
-0.828008 -3.7012 -0.999372
-0.810498 -3.69251 -0.996137
-0.793105 -3.68394 -0.992958
-0.775879 -3.67565 -0.989878
-0.75876 -3.66741 -0.986831
-0.741728 -3.65925 -0.983819
-0.724814 -3.6511 -0.98084
-0.707998 -3.64303 -0.977895
-0.691289 -3.63497 -0.974982
-0.674668 -3.62698 -0.972102
-0.658145 -3.61903 -0.969254
-0.641719 -3.61112 -0.966438
-0.6254 -3.60325 -0.963653
-0.60916 -3.59541 -0.960892
-0.592998 -3.58757 -0.95815
-0.576943 -3.57975 -0.955437
-0.560957 -3.57198 -0.952755
-0.545068 -3.56427 -0.950102
-0.529277 -3.55659 -0.947483
-0.513574 -3.54904 -0.944913
-0.497969 -3.54152 -0.942372
-0.482432 -3.53405 -0.939859
-0.466982 -3.52662 -0.937375
-0.451621 -3.51921 -0.934918
-0.43627 -3.51137 -0.932359
-0.420967 -3.5032 -0.929733
-0.405742 -3.49508 -0.927137
-0.390596 -3.48701 -0.92457
-0.375547 -3.47896 -0.922031
-0.360576 -3.47096 -0.91952
-0.345703 -3.46318 -0.917086
-0.330986 -3.45622 -0.914881
-0.316328 -3.44929 -0.912702
-0.301768 -3.44258 -0.9106
-0.287266 -3.43592 -0.908523
-0.272842 -3.42927 -0.906469
-0.258457 -3.42266 -0.904438
-0.24415 -3.41607 -0.90243
-0.229922 -3.40951 -0.900446
-0.215693 -3.40234 -0.898315
-0.201504 -3.39455 -0.896038
-0.187393 -3.38679 -0.893786
-0.17334 -3.37908 -0.891558
-0.159355 -3.37141 -0.889355
-0.145449 -3.36375 -0.887176
-0.131602 -3.35613 -0.88502
-0.117822 -3.34855 -0.882889
-0.104111 -3.341 -0.880781
-0.0904687 -3.33349 -0.878696
-0.0769141 -3.32733 -0.876984
-0.0634277 -3.32132 -0.875324
-0.0499707 -3.31531 -0.873685
-0.036582 -3.30934 -0.872065
-0.0232324 -3.3034 -0.870464
-0.00993164 -3.29745 -0.868881
0.00331055 -3.29152 -0.867318
0.0165234 -3.28568 -0.865788
0.0296777 -3.27998 -0.864309
0.0427832 -3.27429 -0.862847
0.0558594 -3.26861 -0.861403
0.068877 -3.26294 -0.859977
0.0818652 -3.2573 -0.858569
0.0948047 -3.25166 -0.857178
0.107705 -3.24605 -0.855804
0.120557 -3.24045 -0.854448
0.133369 -3.23485 -0.853108
0.146152 -3.22929 -0.851787
0.158887 -3.22372 -0.850481
0.171582 -3.21817 -0.849193
0.184473 -3.21662 -0.848969
0.197383 -3.21544 -0.848862
0.210273 -3.21427 -0.848769
0.223184 -3.21309 -0.848689
0.236064 -3.21191 -0.848623
0.248955 -3.21073 -0.848571
0.261855 -3.20958 -0.848533
0.27623 -3.22568 -0.853076
0.291357 -3.24863 -0.859449
0.306699 -3.27191 -0.865929
0.322295 -3.29556 -0.872521
0.338115 -3.31954 -0.879224
0.35418 -3.3439 -0.886043
0.370498 -3.3686 -0.89298
0.386934 -3.39241 -0.899694
0.403301 -3.41403 -0.905854
0.419902 -3.43596 -0.91211
0.436738 -3.45818 -0.918465
0.453809 -3.48067 -0.924921
0.471113 -3.50351 -0.93148
0.488877 -3.52823 -0.938572
0.506973 -3.55365 -0.94587
0.525342 -3.57946 -0.953295
0.544111 -3.60636 -0.961029
0.563252 -3.63411 -0.969019
0.582705 -3.6623 -0.977155
0.60249 -3.69098 -0.985442
0.622598 -3.7201 -0.993881
0.643066 -3.74974 -1.00248
0.66459 -3.78382 -1.0123
0.687539 -3.82422 -1.02384
0.711855 -3.87005 -1.03686
0.737109 -3.91877 -1.0507
0.763281 -3.97 -1.06525
0.790195 -4.02266 -1.08023
0.817871 -4.07683 -1.09564
0.846338 -4.13254 -1.11152
0.88 -4.21071 -1.13349
0.921162 -4.32089 -1.16414
0.964619 -4.4372 -1.19651
1.38749 -6.26102 -1.6898
1.41265 -6.2554 -1.6898
1.43778 -6.24966 -1.6898
1.46289 -6.24383 -1.6898
1.48798 -6.23789 -1.6898
1.51306 -6.23187 -1.6898
1.53809 -6.22574 -1.6898
1.56311 -6.21951 -1.6898
1.5881 -6.21318 -1.6898
1.61306 -6.20674 -1.6898
1.638 -6.2002 -1.6898
1.6629 -6.19355 -1.6898
1.68779 -6.18684 -1.6898
1.71265 -6.17999 -1.6898
1.73748 -6.17306 -1.6898
1.76228 -6.16604 -1.6898
1.78705 -6.15889 -1.6898
1.81179 -6.15165 -1.6898
1.8365 -6.14433 -1.6898
1.86119 -6.13689 -1.6898
1.88585 -6.12936 -1.6898
1.91048 -6.12173 -1.6898
1.93507 -6.114 -1.6898
1.95963 -6.10617 -1.6898
1.98416 -6.09824 -1.6898
2.00866 -6.09021 -1.6898
2.03312 -6.0821 -1.6898
2.05756 -6.07388 -1.6898
2.08195 -6.06555 -1.6898
2.10632 -6.05713 -1.6898
2.13065 -6.04861 -1.6898
2.15495 -6.04 -1.6898
2.17922 -6.0313 -1.6898
2.20344 -6.02248 -1.6898
2.22764 -6.01357 -1.6898
2.2518 -6.00458 -1.6898
2.27592 -5.99548 -1.6898
2.29999 -5.98627 -1.6898
2.32404 -5.97697 -1.6898
2.34805 -5.96759 -1.6898
2.37201 -5.9581 -1.6898
2.39595 -5.94852 -1.6898
2.41984 -5.93885 -1.6898
2.44369 -5.92906 -1.6898
2.46751 -5.91921 -1.6898
2.49128 -5.90922 -1.6898
2.51502 -5.89917 -1.6898
2.53872 -5.88901 -1.6898
2.56236 -5.87875 -1.6898
2.58598 -5.86842 -1.6898
2.60955 -5.85797 -1.6898
2.63309 -5.84743 -1.6898
2.65656 -5.8368 -1.6898
2.68001 -5.82606 -1.6898
2.7034 -5.81524 -1.6898
2.72676 -5.80433 -1.6898
2.75007 -5.79333 -1.6898
2.77334 -5.78223 -1.6898
2.79655 -5.77103 -1.6898
2.81974 -5.75974 -1.6898
2.84286 -5.74835 -1.6898
2.86595 -5.73688 -1.6898
2.88898 -5.72531 -1.6898
2.91198 -5.71366 -1.6898
2.93492 -5.7019 -1.6898
2.95783 -5.69007 -1.6898
2.98067 -5.67813 -1.6898
3.00347 -5.66609 -1.6898
3.02623 -5.65399 -1.6898
3.04893 -5.64176 -1.6898
3.07158 -5.62944 -1.6898
3.09419 -5.61705 -1.6898
3.11676 -5.60459 -1.6898
3.13925 -5.59201 -1.6898
3.16171 -5.57935 -1.6898
3.18411 -5.56658 -1.6898
3.20646 -5.55374 -1.6898
3.22876 -5.5408 -1.6898
3.25102 -5.52779 -1.6898
3.27321 -5.51467 -1.6898
3.29535 -5.50146 -1.6898
3.31743 -5.48817 -1.6898
3.33947 -5.47479 -1.6898
3.36145 -5.46133 -1.6898
3.38338 -5.44776 -1.6898
3.40525 -5.43413 -1.6898
3.42707 -5.42039 -1.6898
3.44884 -5.40658 -1.6898
3.47055 -5.39268 -1.6898
3.49219 -5.37866 -1.6898
3.51379 -5.36459 -1.6898
3.53532 -5.35042 -1.6898
3.5568 -5.33617 -1.6898
3.57822 -5.32183 -1.6898
3.59959 -5.30739 -1.6898
3.62089 -5.29288 -1.6898
3.64215 -5.27828 -1.6898
3.66333 -5.2636 -1.6898
3.68445 -5.24882 -1.6898
3.70553 -5.23399 -1.6898
3.72654 -5.21904 -1.6898
3.74749 -5.20402 -1.6898
3.76838 -5.18891 -1.6898
3.78921 -5.17372 -1.6898
3.80998 -5.15846 -1.6898
3.83068 -5.1431 -1.6898
3.85132 -5.12766 -1.6898
3.8719 -5.11212 -1.6898
3.89242 -5.09652 -1.6898
3.91288 -5.08083 -1.6898
3.93328 -5.06506 -1.6898
3.9536 -5.04922 -1.6898
3.97387 -5.03329 -1.6898
3.99407 -5.01726 -1.6898
4.0142 -5.00116 -1.6898
4.03428 -4.98498 -1.6898
4.05428 -4.96871 -1.6898
4.07423 -4.95238 -1.6898
4.0941 -4.93598 -1.6898
4.11392 -4.91947 -1.6898
4.13365 -4.9029 -1.6898
4.15334 -4.88624 -1.6898
4.17294 -4.8695 -1.6898
4.19248 -4.85269 -1.6898
4.21195 -4.83579 -1.6898
4.23136 -4.81882 -1.6898
4.2507 -4.80178 -1.6898
4.26996 -4.78465 -1.6898
4.28917 -4.76746 -1.6898
4.3083 -4.75017 -1.6898
4.32735 -4.73281 -1.6898
4.34635 -4.71536 -1.6898
4.36526 -4.69785 -1.6898
4.38411 -4.68027 -1.6898
4.4029 -4.66262 -1.6898
4.4216 -4.64487 -1.6898
4.44024 -4.62707 -1.6898
4.4588 -4.60918 -1.6898
4.4773 -4.59122 -1.6898
4.49571 -4.57318 -1.6898
4.51407 -4.55509 -1.6898
4.53234 -4.53688 -1.6898
4.55054 -4.51863 -1.6898
4.56867 -4.50029 -1.6898
4.58673 -4.48189 -1.6898
4.6047 -4.46342 -1.6898
4.62262 -4.44488 -1.6898
4.64044 -4.42626 -1.6898
4.6582 -4.40758 -1.6898
4.67588 -4.38881 -1.6898
4.69348 -4.36998 -1.6898
4.71101 -4.35107 -1.6898
4.72846 -4.3321 -1.6898
4.74583 -4.31306 -1.6898
4.76314 -4.29395 -1.6898
4.78036 -4.27477 -1.6898
4.7975 -4.25551 -1.6898
4.81458 -4.2362 -1.6898
4.83156 -4.21681 -1.6898
4.84849 -4.19736 -1.6898
4.86531 -4.17782 -1.6898
4.88207 -4.15824 -1.6898
4.89875 -4.13857 -1.6898
4.91534 -4.11885 -1.6898
4.93186 -4.09906 -1.6898
4.9483 -4.0792 -1.6898
4.96466 -4.05929 -1.6898
4.98093 -4.03928 -1.6898
4.99713 -4.01922 -1.6898
5.01325 -3.99911 -1.6898
5.02928 -3.97892 -1.6898
5.04524 -3.95866 -1.6898
5.06111 -3.93835 -1.6898
5.0769 -3.91799 -1.6898
5.09261 -3.89753 -1.6898
5.10824 -3.87703 -1.6898
5.12378 -3.85647 -1.6898
5.13925 -3.83584 -1.6898
5.15463 -3.81516 -1.6898
5.16991 -3.79438 -1.6898
5.18513 -3.77358 -1.6898
5.20025 -3.75271 -1.6898
5.2153 -3.73178 -1.6898
5.23025 -3.71078 -1.6898
5.24514 -3.68972 -1.6898
5.25992 -3.66861 -1.6898
5.27463 -3.64743 -1.6898
5.28924 -3.6262 -1.6898
5.30378 -3.60492 -1.6898
5.31823 -3.58357 -1.6898
5.33259 -3.56215 -1.6898
5.34687 -3.54068 -1.6898
5.36106 -3.51917 -1.6898
5.37516 -3.49758 -1.6898
5.38919 -3.47596 -1.6898
5.40311 -3.45426 -1.6898
5.41695 -3.43251 -1.6898
5.4307 -3.41072 -1.6898
5.44438 -3.38884 -1.6898
5.45795 -3.36693 -1.6898
5.47145 -3.34497 -1.6898
5.48485 -3.32295 -1.6898
5.49816 -3.30087 -1.6898
5.51139 -3.27874 -1.6898
5.52452 -3.25656 -1.6898
5.53756 -3.23432 -1.6898
5.55053 -3.21204 -1.6898
5.56339 -3.1897 -1.6898
5.57616 -3.1673 -1.6898
5.58885 -3.14485 -1.6898
5.60145 -3.12236 -1.6898
5.61396 -3.09983 -1.6898
5.62638 -3.07724 -1.6898
5.6387 -3.05459 -1.6898
5.65093 -3.0319 -1.6898
5.66308 -3.00917 -1.6898
5.67513 -2.98637 -1.6898
5.68708 -2.96353 -1.6898
5.69895 -2.94064 -1.6898
5.71073 -2.91771 -1.6898
5.72241 -2.89473 -1.6898
5.734 -2.87171 -1.6898
5.74551 -2.84864 -1.6898
5.7569 -2.82552 -1.6898
5.76822 -2.80235 -1.6898
5.77943 -2.77913 -1.6898
5.79056 -2.75588 -1.6898
5.8016 -2.7326 -1.6898
5.81253 -2.70924 -1.6898
5.82337 -2.68585 -1.6898
5.83412 -2.66241 -1.6898
5.84478 -2.63895 -1.6898
5.85534 -2.61541 -1.6898
5.86581 -2.59186 -1.6898
5.87618 -2.56826 -1.6898
5.88646 -2.54463 -1.6898
5.89663 -2.52093 -1.6898
5.90673 -2.49721 -1.6898
5.91672 -2.47344 -1.6898
5.92661 -2.44963 -1.6898
5.93642 -2.4258 -1.6898
5.94611 -2.40192 -1.6898
5.95572 -2.37798 -1.6898
5.95958 -2.35181 -1.6882
5.95962 -2.32417 -1.68555
5.95966 -2.29664 -1.68294
5.9597 -2.26917 -1.68036
5.95974 -2.2418 -1.67782
5.95978 -2.2145 -1.67531
5.95981 -2.1873 -1.67283
5.95985 -2.16017 -1.6704
5.95989 -2.13312 -1.66799
5.95993 -2.10614 -1.66562
5.95998 -2.07925 -1.66328
5.96002 -2.05241 -1.66097
5.96006 -2.02566 -1.6587
5.9601 -1.99899 -1.65646
5.96014 -1.97239 -1.65426
5.96019 -1.94586 -1.65208
5.96022 -1.91939 -1.64994
5.96026 -1.89299 -1.64783
5.96029 -1.86666 -1.64576
5.96033 -1.84039 -1.64371
5.96037 -1.81419 -1.6417
5.96041 -1.78806 -1.63971
5.96045 -1.76199 -1.63776
5.96049 -1.73599 -1.63584
5.96053 -1.71001 -1.63396
5.96056 -1.68412 -1.6321
5.96061 -1.65829 -1.63027
5.96064 -1.63251 -1.62847
5.96067 -1.60679 -1.6267
5.96071 -1.58112 -1.62497
5.96075 -1.55551 -1.62326
5.9608 -1.52997 -1.62158
5.96083 -1.50447 -1.61993
5.96087 -1.479 -1.61831
5.96091 -1.45359 -1.61672
5.96094 -1.42825 -1.61516
5.96098 -1.40294 -1.61363
5.96102 -1.37768 -1.61213
5.96105 -1.3525 -1.61066
5.96108 -1.3273 -1.60921
5.96113 -1.30219 -1.6078
5.96113 -1.27711 -1.6064
5.96192 -1.25223 -1.60525
5.96271 -1.22739 -1.60411
5.96347 -1.20258 -1.603
5.96421 -1.17779 -1.60192
5.96494 -1.15305 -1.60086
5.96565 -1.12831 -1.59982
5.96635 -1.10362 -1.5988
5.96704 -1.07896 -1.59781
5.9677 -1.05433 -1.59684
5.96836 -1.02973 -1.5959
5.96899 -1.00515 -1.59497
5.96962 -0.980576 -1.59407
5.97022 -0.956064 -1.5932
5.97083 -0.931553 -1.59234
5.97141 -0.90707 -1.59151
5.97196 -0.882617 -1.5907
5.97251 -0.858164 -1.58992
5.97305 -0.83374 -1.58916
5.97356 -0.809355 -1.58842
5.97406 -0.784971 -1.5877
5.97456 -0.760625 -1.587
5.97647 -0.736465 -1.58671
5.97938 -0.712432 -1.58671
5.98222 -0.688408 -1.58671
5.98493 -0.664346 -1.58671
5.98755 -0.640283 -1.58671
5.99007 -0.616201 -1.58671
5.9925 -0.592119 -1.58671
5.99482 -0.568008 -1.58671
5.99707 -0.543906 -1.58671
5.99921 -0.519805 -1.58671
6.00125 -0.495674 -1.58671
6.00319 -0.471553 -1.58671
6.00503 -0.447422 -1.58671
6.00679 -0.423291 -1.58671
6.00844 -0.399121 -1.58671
6.01 -0.374961 -1.58671
6.01146 -0.350781 -1.58671
6.01281 -0.326621 -1.58671
6.01407 -0.302451 -1.58671
6.01525 -0.278301 -1.58671
6.01632 -0.254072 -1.58671
6.01729 -0.229912 -1.58671
6.01816 -0.205723 -1.58671
6.01895 -0.181533 -1.58671
6.01963 -0.157324 -1.58671
6.02021 -0.133125 -1.58671
6.02069 -0.108926 -1.58671
6.02108 -0.0847266 -1.58671
6.02138 -0.0605078 -1.58671
6.02157 -0.0362988 -1.58671
6.02167 -0.0120996 -1.58671
6.02167 0.0120996 -1.58671
6.02157 0.0363184 -1.58671
6.02138 0.0605371 -1.58671
6.02108 0.0847363 -1.58671
6.0207 0.108906 -1.58671
6.02021 0.133125 -1.58671
6.01963 0.157334 -1.58671
6.01895 0.181523 -1.58671
6.01816 0.205732 -1.58671
6.01729 0.229912 -1.58671
6.01632 0.254092 -1.58671
6.01524 0.278291 -1.58671
6.01408 0.302461 -1.58671
6.01282 0.326641 -1.58671
6.01145 0.350811 -1.58671
6.01 0.374941 -1.58671
6.00844 0.399121 -1.58671
6.00679 0.423262 -1.58671
6.00503 0.447422 -1.58671
6.00318 0.471543 -1.58671
6.00125 0.495674 -1.58671
5.9992 0.519795 -1.58671
5.99706 0.543906 -1.58671
5.99482 0.568008 -1.58671
5.9925 0.5921 -1.58671
5.99007 0.616201 -1.58671
5.98755 0.640254 -1.58671
5.98492 0.664336 -1.58671
5.9822 0.688398 -1.58671
5.97938 0.712422 -1.58671
5.9763 0.736436 -1.58666
5.97584 0.760781 -1.58734
5.97537 0.785146 -1.58805
5.97489 0.809521 -1.58877
5.97439 0.833935 -1.58952
5.9739 0.85835 -1.59029
5.97337 0.882803 -1.59108
5.97282 0.907275 -1.59189
5.97227 0.931777 -1.59273
5.9717 0.956279 -1.59359
5.97111 0.98083 -1.59447
5.97051 1.0054 -1.59538
5.9699 1.02998 -1.59631
5.96927 1.05462 -1.59726
5.96863 1.07926 -1.59824
5.96797 1.10393 -1.59924
5.96729 1.12864 -1.60026
5.9666 1.15334 -1.6013
5.9659 1.17813 -1.60237
5.96518 1.20293 -1.60346
5.96443 1.22772 -1.60458
5.96369 1.25259 -1.60572
5.96327 1.27756 -1.60698
5.96326 1.30264 -1.60837
5.96325 1.32779 -1.6098
5.96324 1.35297 -1.61125
5.96323 1.37819 -1.61273
5.96323 1.40346 -1.61424
5.96322 1.42879 -1.61578
5.96321 1.45417 -1.61735
5.9632 1.47957 -1.61895
5.96319 1.50504 -1.62058
5.96318 1.53058 -1.62223
5.96317 1.55615 -1.62392
5.96317 1.58177 -1.62563
5.96316 1.60745 -1.62738
5.96315 1.6332 -1.62916
5.96314 1.65898 -1.63096
5.96313 1.68485 -1.6328
5.96312 1.71077 -1.63467
5.96312 1.73674 -1.63657
5.96312 1.76275 -1.6385
5.9631 1.78886 -1.64046
5.9631 1.81502 -1.64245
5.96309 1.84124 -1.64447
5.96308 1.86754 -1.64653
5.96307 1.89389 -1.64861
5.96306 1.92029 -1.65073
5.96305 1.94678 -1.65288
5.96305 1.97334 -1.65506
5.96304 1.99996 -1.65728
5.96302 2.02668 -1.65953
5.96302 2.05345 -1.66181
5.96301 2.08029 -1.66412
5.963 2.10723 -1.66647
5.96299 2.13423 -1.66885
5.96298 2.1613 -1.67127
5.96298 2.18845 -1.67372
5.96296 2.21568 -1.6762
5.96296 2.243 -1.67872
5.96295 2.2704 -1.68127
5.96294 2.2979 -1.68386
5.96293 2.32547 -1.68649
5.96292 2.35311 -1.68915
5.95572 2.37798 -1.6898
5.94611 2.40191 -1.6898
5.93642 2.42579 -1.6898
5.92661 2.44966 -1.6898
5.91672 2.47345 -1.6898
5.90672 2.49722 -1.6898
5.89663 2.52095 -1.6898
5.88646 2.54462 -1.6898
5.87618 2.56825 -1.6898
5.86581 2.59186 -1.6898
5.85534 2.61542 -1.6898
5.84479 2.63894 -1.6898
5.83412 2.66241 -1.6898
5.82338 2.68584 -1.6898
5.81253 2.70924 -1.6898
5.80159 2.73258 -1.6898
5.79056 2.75588 -1.6898
5.77943 2.77914 -1.6898
5.76821 2.80235 -1.6898
5.7569 2.8255 -1.6898
5.7455 2.84863 -1.6898
5.73399 2.87172 -1.6898
5.7224 2.89474 -1.6898
5.71072 2.91771 -1.6898
5.69895 2.94064 -1.6898
5.68708 2.96354 -1.6898
5.67513 2.98636 -1.6898
5.66308 3.00915 -1.6898
5.65093 3.03191 -1.6898
5.63869 3.05459 -1.6898
5.62638 3.07723 -1.6898
5.61396 3.09983 -1.6898
5.60145 3.12237 -1.6898
5.58885 3.14487 -1.6898
5.57616 3.16731 -1.6898
5.56339 3.18971 -1.6898
5.55052 3.21203 -1.6898
5.53756 3.23433 -1.6898
5.52452 3.25653 -1.6898
5.51139 3.27873 -1.6898
5.49815 3.30085 -1.6898
5.48483 3.32295 -1.6898
5.47145 3.34495 -1.6898
5.45795 3.36693 -1.6898
5.44437 3.38885 -1.6898
5.43069 3.41071 -1.6898
5.41695 3.43249 -1.6898
5.40311 3.45424 -1.6898
5.38917 3.47596 -1.6898
5.37516 3.49758 -1.6898
5.36105 3.51917 -1.6898
5.34687 3.54067 -1.6898
5.3326 3.56214 -1.6898
5.31822 3.58356 -1.6898
5.30378 3.60489 -1.6898
5.28925 3.6262 -1.6898
5.27462 3.64744 -1.6898
5.25992 3.66859 -1.6898
5.24513 3.68973 -1.6898
5.23025 3.71078 -1.6898
5.2153 3.73178 -1.6898
5.20025 3.7527 -1.6898
5.18512 3.77359 -1.6898
5.16991 3.79439 -1.6898
5.15462 3.81515 -1.6898
5.13924 3.83583 -1.6898
5.12377 3.85646 -1.6898
5.10823 3.87704 -1.6898
5.09261 3.89753 -1.6898
5.07689 3.91797 -1.6898
5.06111 3.93834 -1.6898
5.04523 3.95865 -1.6898
5.02928 3.97892 -1.6898
5.01324 3.99909 -1.6898
4.99713 4.01922 -1.6898
4.98093 4.03927 -1.6898
4.96466 4.05926 -1.6898
4.94829 4.07918 -1.6898
4.93187 4.09903 -1.6898
4.91534 4.11885 -1.6898
4.89874 4.13855 -1.6898
4.88206 4.15823 -1.6898
4.86531 4.17782 -1.6898
4.84847 4.19734 -1.6898
4.83156 4.2168 -1.6898
4.81457 4.23621 -1.6898
4.7975 4.2555 -1.6898
4.78035 4.27476 -1.6898
4.76313 4.29395 -1.6898
4.74584 4.31305 -1.6898
4.72846 4.33211 -1.6898
4.71101 4.35108 -1.6898
4.69347 4.36998 -1.6898
4.67587 4.3888 -1.6898
4.65818 4.40758 -1.6898
4.64044 4.42626 -1.6898
4.62261 4.44486 -1.6898
4.6047 4.46343 -1.6898
4.58673 4.48189 -1.6898
4.56866 4.5003 -1.6898
4.55055 4.51861 -1.6898
4.53233 4.53687 -1.6898
4.51406 4.55507 -1.6898
4.49571 4.57317 -1.6898
4.47729 4.59121 -1.6898
4.45879 4.60919 -1.6898
4.44023 4.62707 -1.6898
4.42159 4.64488 -1.6898
4.40288 4.66261 -1.6898
4.38411 4.68025 -1.6898
4.36526 4.69785 -1.6898
4.34635 4.71537 -1.6898
4.32735 4.7328 -1.6898
4.30829 4.75015 -1.6898
4.28916 4.76743 -1.6898
4.26997 4.78465 -1.6898
4.25069 4.80176 -1.6898
4.23135 4.81883 -1.6898
4.21195 4.83578 -1.6898
4.19247 4.85269 -1.6898
4.17294 4.86949 -1.6898
4.15332 4.88624 -1.6898
4.13364 4.90289 -1.6898
4.11391 4.91947 -1.6898
4.09409 4.93596 -1.6898
4.07422 4.95238 -1.6898
4.05428 4.96872 -1.6898
4.03427 4.98498 -1.6898
4.01421 5.00116 -1.6898
3.99406 5.01726 -1.6898
3.97387 5.03327 -1.6898
3.9536 5.0492 -1.6898
3.93326 5.06507 -1.6898
3.91288 5.08081 -1.6898
3.89241 5.09652 -1.6898
3.8719 5.11212 -1.6898
3.85132 5.12764 -1.6898
3.83066 5.14309 -1.6898
3.80997 5.15845 -1.6898
3.78921 5.1737 -1.6898
3.76837 5.18891 -1.6898
3.74749 5.204 -1.6898
3.72653 5.21902 -1.6898
3.70553 5.23397 -1.6898
3.68445 5.24882 -1.6898
3.66332 5.2636 -1.6898
3.64214 5.27827 -1.6898
3.62088 5.29288 -1.6898
3.59958 5.30737 -1.6898
3.57822 5.32183 -1.6898
3.5568 5.33616 -1.6898
3.53532 5.35039 -1.6898
3.51378 5.36459 -1.6898
3.49219 5.37865 -1.6898
3.47054 5.39266 -1.6898
3.44883 5.40656 -1.6898
3.42706 5.42039 -1.6898
3.40525 5.43411 -1.6898
3.38337 5.44776 -1.6898
3.36145 5.46132 -1.6898
3.33947 5.47479 -1.6898
3.31743 5.48816 -1.6898
3.29535 5.50145 -1.6898
3.2732 5.51466 -1.6898
3.25101 5.52777 -1.6898
3.22876 5.5408 -1.6898
3.20645 5.55374 -1.6898
3.18411 5.56657 -1.6898
3.1617 5.57934 -1.6898
3.13926 5.59199 -1.6898
3.11674 5.60458 -1.6898
3.09418 5.61705 -1.6898
3.07159 5.62944 -1.6898
3.04893 5.64175 -1.6898
3.02623 5.65396 -1.6898
3.00347 5.66608 -1.6898
2.98066 5.67812 -1.6898
2.95781 5.69006 -1.6898
2.93492 5.7019 -1.6898
2.91196 5.71366 -1.6898
2.88898 5.7253 -1.6898
2.86595 5.73688 -1.6898
2.84285 5.74834 -1.6898
2.81973 5.75972 -1.6898
2.79655 5.77103 -1.6898
2.77333 5.78222 -1.6898
2.75006 5.79331 -1.6898
2.72676 5.80432 -1.6898
2.7034 5.81523 -1.6898
2.68 5.82606 -1.6898
2.65656 5.83678 -1.6898
2.63307 5.84741 -1.6898
2.60954 5.85795 -1.6898
2.58597 5.8684 -1.6898
2.56236 5.87874 -1.6898
2.53871 5.88899 -1.6898
2.51501 5.89916 -1.6898
2.49128 5.90923 -1.6898
2.46751 5.91919 -1.6898
2.44368 5.92906 -1.6898
2.41983 5.93884 -1.6898
2.39595 5.94851 -1.6898
2.372 5.9581 -1.6898
2.34804 5.96758 -1.6898
2.32403 5.97697 -1.6898
2.29998 5.98628 -1.6898
2.2759 5.99546 -1.6898
2.25179 6.00456 -1.6898
2.22763 6.01357 -1.6898
2.20344 6.02248 -1.6898
2.17921 6.03129 -1.6898
2.15495 6.04 -1.6898
2.13064 6.04861 -1.6898
2.10632 6.05713 -1.6898
2.08195 6.06554 -1.6898
2.05755 6.07387 -1.6898
2.03312 6.08209 -1.6898
2.00865 6.0902 -1.6898
1.98415 6.09823 -1.6898
1.95963 6.10616 -1.6898
1.93506 6.11398 -1.6898
1.91047 6.12173 -1.6898
1.88585 6.12936 -1.6898
1.86119 6.13688 -1.6898
1.8365 6.14432 -1.6898
1.81179 6.15165 -1.6898
1.78705 6.15888 -1.6898
1.76227 6.16603 -1.6898
1.73747 6.17306 -1.6898
1.71265 6.17998 -1.6898
1.68778 6.18682 -1.6898
1.66289 6.19356 -1.6898
1.63799 6.2002 -1.6898
1.61305 6.20672 -1.6898
1.5881 6.21316 -1.6898
1.5631 6.21949 -1.6898
1.53808 6.22573 -1.6898
1.51305 6.23185 -1.6898
1.48798 6.2379 -1.6898
1.46289 6.24381 -1.6898
1.43777 6.24966 -1.6898
1.41265 6.25538 -1.6898
1.38749 6.26101 -1.6898
1.3623 6.26654 -1.6898
1.33711 6.27195 -1.6898
1.31188 6.27729 -1.6898
1.28663 6.28251 -1.6898
1.26137 6.28764 -1.6898
1.23608 6.29265 -1.6898
1.21078 6.29758 -1.6898
1.18546 6.30236 -1.6898
1.16012 6.30708 -1.6898
1.13475 6.31171 -1.6898
1.10937 6.31622 -1.6898
1.08397 6.32062 -1.6898
1.05854 6.32493 -1.6898
1.03312 6.32914 -1.6898
1.00766 6.33324 -1.6898
0.982197 6.33725 -1.6898
0.956709 6.34114 -1.6898
0.931211 6.34493 -1.6898
0.905703 6.34862 -1.6898
0.880166 6.35223 -1.6898
0.854629 6.35569 -1.6898
0.829072 6.35908 -1.6898
0.803506 6.36236 -1.6898
0.77792 6.36554 -1.6898
0.752324 6.36862 -1.6898
0.726709 6.3716 -1.6898
0.701084 6.37447 -1.6898
0.675469 6.37723 -1.6898
0.649824 6.37989 -1.6898
0.62417 6.38245 -1.6898
0.598506 6.38492 -1.6898
0.572832 6.38728 -1.6898
0.547148 6.38953 -1.6898
0.521465 6.39166 -1.6898
0.495771 6.3937 -1.6898
0.470059 6.39565 -1.6898
0.444346 6.39749 -1.6898
0.418633 6.39922 -1.6898
0.392891 6.40085 -1.6898
0.367168 6.40238 -1.6898
0.341416 6.40381 -1.6898
0.315674 6.40512 -1.6898
0.289922 6.40634 -1.6898
0.26418 6.40745 -1.6898
0.238418 6.40846 -1.6898
0.212646 6.40937 -1.6898
0.186875 6.41017 -1.6898
0.161113 6.41087 -1.6898
0.135332 6.41147 -1.6898
0.109561 6.41195 -1.6898
0.0837793 6.41235 -1.6898
0.0580078 6.41264 -1.6898
0.0322266 6.41282 -1.6898
0.00644531 6.41289 -1.6898
-0.0193262 6.41286 -1.6898
-0.0451074 6.41274 -1.6898
-0.0708887 6.41251 -1.6898
-0.0966699 6.41218 -1.6898
-0.122441 6.41174 -1.6898
-0.148223 6.41119 -1.6898
-0.173994 6.41055 -1.6898
-0.199746 6.40978 -1.6898
-0.225527 6.40895 -1.6898
-0.251289 6.40798 -1.6898
-0.277031 6.4069 -1.6898
-0.302803 6.40576 -1.6898
-0.328545 6.40448 -1.6898
-0.354277 6.40312 -1.6898
-0.380029 6.40164 -1.6898
-0.405752 6.40006 -1.6898
-0.431475 6.39837 -1.6898
-0.457188 6.39658 -1.6898
-0.4829 6.3947 -1.6898
-0.508604 6.39269 -1.6898
-0.534307 6.39061 -1.6898
-0.55999 6.38841 -1.6898
-0.585664 6.38609 -1.6898
-0.611338 6.38371 -1.6898
-0.636992 6.3812 -1.6898
-0.662637 6.37857 -1.6898
-0.688271 6.37586 -1.6898
-0.713906 6.37305 -1.6898
-0.739502 6.37012 -1.6898
-0.765107 6.36709 -1.6898
-0.790703 6.36397 -1.6898
-0.816279 6.36074 -1.6898
-0.841846 6.3574 -1.6898
-0.867393 6.35397 -1.6898
-0.89293 6.35043 -1.6898
-0.918457 6.34681 -1.6898
-0.943955 6.34306 -1.6898
-0.969443 6.3392 -1.6898
-0.994922 6.33525 -1.6898
-1.02038 6.33121 -1.6898
-1.04582 6.32704 -1.6898
-1.07125 6.32278 -1.6898
-1.09665 6.31842 -1.6898
-1.12205 6.31397 -1.6898
-1.14742 6.30942 -1.6898
-1.17277 6.30476 -1.6898
-1.19811 6.3 -1.6898
-1.22343 6.29512 -1.6898
-1.24873 6.29016 -1.6898
-1.27399 6.28507 -1.6898
-1.29926 6.27991 -1.6898
-1.32449 6.27464 -1.6898
-1.34971 6.26926 -1.6898
-1.37489 6.26377 -1.6898
-1.40007 6.2582 -1.6898
-1.4252 6.25252 -1.6898
-1.45033 6.24674 -1.6898
-1.47543 6.24086 -1.6898
-1.50051 6.23489 -1.6898
-1.52556 6.22879 -1.6898
-1.55059 6.22261 -1.6898
-1.57559 6.21633 -1.6898
-1.60057 6.20995 -1.6898
-1.62552 6.20347 -1.6898
-1.65044 6.19688 -1.6898
-1.67533 6.19019 -1.6898
-1.70021 6.18342 -1.6898
-1.72505 6.17652 -1.6898
-1.74987 6.16955 -1.6898
-1.77466 6.16246 -1.6898
-1.79941 6.15527 -1.6898
-1.82415 6.14799 -1.6898
-1.84884 6.14061 -1.6898
-1.87351 6.13312 -1.6898
-1.89815 6.12556 -1.6898
-1.92276 6.11786 -1.6898
-1.94734 6.11008 -1.6898
-1.97189 6.10222 -1.6898
-1.9964 6.09423 -1.6898
-2.02088 6.08615 -1.6898
-2.04533 6.07798 -1.6898
-2.06976 6.06972 -1.6898
-2.09413 6.06135 -1.6898
-2.09928 5.99801 -1.67448
-2.10704 5.94346 -1.66161
-2.11469 5.88976 -1.64896
-2.12223 5.83686 -1.63652
-2.12965 5.78476 -1.6243
-2.13695 5.7334 -1.61228
-2.14787 5.69264 -1.60323
-2.16202 5.66114 -1.5968
-2.17548 5.6284 -1.59002
-2.1933 5.60737 -1.58655
-2.21582 5.59851 -1.58655
-2.23832 5.58956 -1.58655
-2.26076 5.58051 -1.58655
-2.28317 5.57138 -1.58655
-2.30556 5.56216 -1.58655
-2.32789 5.55285 -1.58655
-2.3502 5.54345 -1.58655
-2.38544 5.56423 -1.59523
-2.39469 5.52436 -1.58655
-2.41688 5.5147 -1.58655
-2.43903 5.50493 -1.58655
-2.46113 5.49507 -1.58655
-2.48321 5.48515 -1.58655
-2.50524 5.47513 -1.58655
-2.52723 5.46501 -1.58655
-2.54918 5.4548 -1.58655
-2.57107 5.4445 -1.58655
-2.59295 5.43412 -1.58655
-2.61478 5.42366 -1.58655
-2.63656 5.41312 -1.58655
-2.65829 5.40245 -1.58655
-2.67999 5.39172 -1.58655
-2.70164 5.38093 -1.58655
-2.72325 5.37001 -1.58655
-2.74482 5.35902 -1.58655
-2.76634 5.34795 -1.58655
-2.78781 5.33676 -1.58655
-2.80925 5.32554 -1.58655
-2.83062 5.31418 -1.58655
-2.85197 5.30276 -1.58655
-2.87326 5.29126 -1.58655
-2.89451 5.27966 -1.58655
-2.91572 5.268 -1.58655
-2.93687 5.25623 -1.58655
-2.95798 5.24437 -1.58655
-2.97903 5.23244 -1.58655
-3.00004 5.22043 -1.58655
-3.02101 5.20834 -1.58655
-3.04191 5.19612 -1.58655
-3.06278 5.18387 -1.58655
-3.08359 5.17151 -1.58655
-3.10436 5.15906 -1.58655
-3.12507 5.14654 -1.58655
-3.14573 5.13396 -1.58655
-3.16636 5.12127 -1.58655
-3.1869 5.10851 -1.58655
-3.20742 5.09564 -1.58655
-3.22789 5.08271 -1.58655
-3.24828 5.0697 -1.58655
-3.26863 5.05659 -1.58655
-3.28895 5.04341 -1.58655
-3.30919 5.03015 -1.58655
-3.32938 5.01682 -1.58655
-3.34953 5.00338 -1.58655
-3.36962 4.98989 -1.58655
-3.38964 4.97628 -1.58655
-3.40962 4.96262 -1.58655
-3.42954 4.94887 -1.58655
-3.44941 4.93506 -1.58655
-3.46922 4.92115 -1.58655
-3.48897 4.90716 -1.58655
-3.50867 4.8931 -1.58655
-3.52831 4.87895 -1.58655
-3.54789 4.86474 -1.58655
-3.56741 4.85042 -1.58655
-3.58688 4.83605 -1.58655
-3.60631 4.8216 -1.58655
-3.62565 4.80705 -1.58655
-3.64495 4.79243 -1.58655
-3.66418 4.77774 -1.58655
-3.68337 4.76297 -1.58655
-3.70249 4.74813 -1.58655
-3.72154 4.73322 -1.58655
-3.74053 4.7182 -1.58655
-3.75947 4.70313 -1.58655
-3.77834 4.68799 -1.58655
-3.79717 4.67275 -1.58655
-3.81592 4.65746 -1.58655
-3.8346 4.64207 -1.58655
-3.85323 4.62662 -1.58655
-3.87181 4.6111 -1.58655
-3.8903 4.59551 -1.58655
-3.90876 4.57981 -1.58655
-3.92713 4.56405 -1.58655
-3.94546 4.54824 -1.58655
-3.9637 4.53236 -1.58655
-3.98189 4.51638 -1.58655
-4.00001 4.50032 -1.58655
-4.01808 4.48423 -1.58655
-4.03606 4.46803 -1.58655
-4.05399 4.45178 -1.58655
-4.07186 4.43543 -1.58655
-4.08965 4.41903 -1.58655
-4.10738 4.40255 -1.58655
-4.12505 4.38601 -1.58655
-4.14265 4.36939 -1.58655
-4.16018 4.35271 -1.58655
-4.17764 4.33594 -1.58655
-4.19504 4.31911 -1.58655
-4.21236 4.30221 -1.58655
-4.22963 4.28526 -1.58655
-4.24682 4.26822 -1.58655
-4.26395 4.2511 -1.58655
-4.281 4.23393 -1.58655
-4.29798 4.21667 -1.58655
-4.3149 4.19937 -1.58655
-4.33175 4.182 -1.58655
-4.34853 4.16455 -1.58655
-4.36523 4.14703 -1.58655
-4.38187 4.12945 -1.58655
-4.39843 4.11181 -1.58655
-4.41492 4.09408 -1.58655
-4.43135 4.07631 -1.58655
-4.4477 4.05846 -1.58655
-4.46397 4.04056 -1.58655
-4.48018 4.02257 -1.58655
-4.49633 4.00453 -1.58655
-4.51238 3.98643 -1.58655
-4.52837 3.96826 -1.58655
-4.54429 3.95002 -1.58655
-4.56013 3.93171 -1.58655
-4.57589 3.91334 -1.58655
-4.59158 3.89491 -1.58655
-4.60721 3.87644 -1.58655
-4.62275 3.85789 -1.58655
-4.63823 3.83927 -1.58655
-4.65363 3.8206 -1.58655
-4.66895 3.80186 -1.58655
-4.68419 3.78305 -1.58655
-4.69937 3.76419 -1.58655
-4.71445 3.74527 -1.58655
-4.72947 3.72629 -1.58655
-4.74441 3.70725 -1.58655
-4.75928 3.68815 -1.58655
-4.77406 3.66897 -1.58655
-4.78878 3.64977 -1.58655
-4.80341 3.63048 -1.58655
-4.81796 3.61114 -1.58655
-4.83244 3.59174 -1.58655
-4.84684 3.57229 -1.58655
-4.86116 3.55276 -1.58655
-4.87541 3.53321 -1.58655
-4.88956 3.51358 -1.58655
-4.90365 3.49389 -1.58655
-4.91766 3.47415 -1.58655
-4.93158 3.45436 -1.58655
-4.94544 3.43451 -1.58655
-4.9592 3.4146 -1.58655
-4.97288 3.39464 -1.58655
-4.98649 3.37462 -1.58655
-5.00002 3.35455 -1.58655
-5.01346 3.33441 -1.58655
-5.02683 3.31424 -1.58655
-5.04011 3.29399 -1.58655
-5.05331 3.27371 -1.58655
-5.06644 3.25339 -1.58655
-5.07946 3.23298 -1.58655
-5.09242 3.21253 -1.58655
-5.10529 3.19205 -1.58655
-5.11809 3.17149 -1.58655
-5.13079 3.1509 -1.58655
-5.14341 3.13025 -1.58655
-5.15596 3.10955 -1.58655
-5.16842 3.08879 -1.58655
-5.18079 3.06799 -1.58655
-5.19308 3.04712 -1.58655
-5.20529 3.02624 -1.58655
-5.21741 3.00529 -1.58655
-5.03534 2.87351 -1.52766
-5.01303 2.83413 -1.51742
-5.00465 2.8029 -1.51147
-5.01359 2.78149 -1.51077
-5.02251 2.76009 -1.51011
-5.03143 2.73871 -1.50946
-5.04034 2.71736 -1.50885
-5.06337 2.70356 -1.51248
-5.09113 2.69213 -1.51752
-5.12251 2.68243 -1.52365
-5.34516 2.77171 -1.58655
-5.35625 2.7502 -1.58655
-5.36728 2.72864 -1.58655
-5.37819 2.70705 -1.58655
-5.38904 2.68541 -1.58655
-5.39979 2.66371 -1.58655
-5.41046 2.64199 -1.58655
-5.42103 2.62022 -1.58655
-5.43152 2.5984 -1.58655
-5.44192 2.57653 -1.58655
-5.45224 2.55465 -1.58655
-5.46247 2.53271 -1.58655
-5.4726 2.51073 -1.58655
-5.48265 2.48872 -1.58655
-5.49261 2.46666 -1.58655
-5.50247 2.44456 -1.58655
-5.51226 2.42241 -1.58655
-5.52196 2.40025 -1.58655
-5.53155 2.37802 -1.58655
-5.54107 2.35576 -1.58655
-5.5505 2.33348 -1.58655
-5.55983 2.31114 -1.58655
-5.56908 2.28878 -1.58655
-5.57823 2.26636 -1.58655
-5.5873 2.24392 -1.58655
-5.59628 2.22144 -1.58655
-5.60516 2.19893 -1.58655
-5.61396 2.17639 -1.58655
-5.62267 2.1538 -1.58655
-5.63127 2.13117 -1.58655
-5.63979 2.10853 -1.58655
-5.64823 2.08583 -1.58655
-5.65657 2.06312 -1.58655
-5.66481 2.04035 -1.58655
-5.67297 2.01757 -1.58655
-5.68104 1.99475 -1.58655
-5.68901 1.97189 -1.58655
-5.69688 1.949 -1.58655
-5.70467 1.92608 -1.58655
-5.71237 1.90315 -1.58655
-5.71997 1.88016 -1.58655
-5.72749 1.85716 -1.58655
-5.73491 1.83411 -1.58655
-5.74223 1.81104 -1.58655
-5.74946 1.78794 -1.58655
-5.75661 1.76481 -1.58655
-5.76365 1.74168 -1.58655
-5.77062 1.71849 -1.58655
-5.77747 1.69525 -1.58655
-5.78425 1.67204 -1.58655
-5.79092 1.64876 -1.58655
-5.7975 1.62548 -1.58655
-5.80398 1.60215 -1.58655
-5.81037 1.5788 -1.58655
-5.81668 1.55543 -1.58655
-5.82288 1.53204 -1.58655
-5.82899 1.50861 -1.58655
-5.83501 1.48518 -1.58655
-5.84094 1.46172 -1.58655
-5.84676 1.4382 -1.58655
-5.8525 1.41469 -1.58655
-5.85813 1.39116 -1.58655
-5.86368 1.36761 -1.58655
-5.86914 1.34402 -1.58655
-5.87449 1.32041 -1.58655
-5.87975 1.2968 -1.58655
-5.88491 1.27313 -1.58655
-5.88998 1.24947 -1.58655
-5.89496 1.22579 -1.58655
-5.89984 1.20209 -1.58655
-5.90463 1.17836 -1.58655
-5.90932 1.15461 -1.58655
-5.91392 1.13084 -1.58655
-5.9184 1.10705 -1.58655
-5.92281 1.08327 -1.58655
-5.92712 1.05944 -1.58655
-5.93133 1.03561 -1.58655
-5.97282 1.01812 -1.59654
-5.93946 0.987891 -1.58655
-5.94339 0.964014 -1.58655
-5.94721 0.940098 -1.58655
-5.95096 0.916191 -1.58655
-5.95457 0.892256 -1.58655
-5.95812 0.868311 -1.58655
-5.96156 0.844355 -1.58655
-5.9649 0.820381 -1.58655
-5.99836 0.80042 -1.59458
-6.03898 0.781152 -1.60453
-6.08015 0.76165 -1.61464
-6.12181 0.741875 -1.6249
-6.16397 0.721855 -1.63531
-6.22029 0.703115 -1.64949
-6.27946 0.684258 -1.66444
-6.33972 0.665029 -1.67968
-6.38055 0.643408 -1.6898
-6.38309 0.617744 -1.6898
-6.38551 0.59207 -1.6898
-6.38784 0.566396 -1.6898
-6.39006 0.540713 -1.6898
-6.39219 0.515029 -1.6898
-6.3942 0.489326 -1.6898
-6.39612 0.463623 -1.6898
-6.39793 0.43791 -1.6898
-6.39964 0.412178 -1.6898
-6.40124 0.386445 -1.6898
-6.40274 0.360713 -1.6898
-6.40415 0.33498 -1.6898
-6.40544 0.309229 -1.6898
-6.40663 0.283477 -1.6898
-6.40772 0.257725 -1.6898
-6.4087 0.231943 -1.6898
-6.40958 0.206191 -1.6898
-6.41036 0.18042 -1.6898
-6.41104 0.154658 -1.6898
-6.41161 0.128877 -1.6898
-6.41207 0.103086 -1.6898
-6.41243 0.0773242 -1.6898
-6.41269 0.0515332 -1.6898
-6.41285 0.0257715 -1.6898
-6.13611 0 -1.6898
-6.13606 -0.024668 -1.6898
-6.13592 -0.0493359 -1.6898
-6.13566 -0.0740234 -1.6898
-6.13532 -0.0986621 -1.6898
-6.13488 -0.12333 -1.6898
-6.13433 -0.147998 -1.6898
-6.13368 -0.172666 -1.6898
-6.13293 -0.197314 -1.6898
-6.13209 -0.221963 -1.6898
-6.13116 -0.246611 -1.6898
-6.13012 -0.27125 -1.6898
-6.12897 -0.295898 -1.6898
-6.12773 -0.320527 -1.6898
-6.12641 -0.345156 -1.6898
-6.12496 -0.369785 -1.6898
-6.12343 -0.394404 -1.6898
-6.12179 -0.419023 -1.6898
-6.12006 -0.443623 -1.6898
-6.11822 -0.468223 -1.6898
-6.11628 -0.492812 -1.6898
-6.11426 -0.517383 -1.6898
-6.11214 -0.541963 -1.6898
-6.1099 -0.566543 -1.6898
-6.10758 -0.591094 -1.6898
-6.10515 -0.615625 -1.6898
-6.10263 -0.640176 -1.6898
-6.1 -0.664707 -1.6898
-6.09728 -0.689219 -1.6898
-6.09446 -0.713721 -1.6898
-6.09154 -0.738223 -1.6898
-6.08853 -0.762705 -1.6898
-6.08541 -0.787178 -1.6898
-6.08221 -0.811631 -1.6898
-6.07889 -0.836074 -1.6898
-6.07548 -0.860498 -1.6898
-6.07196 -0.884912 -1.6898
-6.06835 -0.909316 -1.6898
-6.06466 -0.933701 -1.6898
-6.06086 -0.958076 -1.6898
-6.05695 -0.982432 -1.6898
-6.05296 -1.00678 -1.6898
-6.04886 -1.03109 -1.6898
-6.04468 -1.05541 -1.6898
-6.04038 -1.0797 -1.6898
-6.03599 -1.10397 -1.6898
-6.03149 -1.12823 -1.6898
-6.0269 -1.15247 -1.6898
-6.02224 -1.17669 -1.6898
-6.01746 -1.20088 -1.6898
-6.01258 -1.22505 -1.6898
-6.0076 -1.24923 -1.6898
-6.00253 -1.27337 -1.6898
-5.99737 -1.29749 -1.6898
-5.9921 -1.32158 -1.6898
-5.98675 -1.34566 -1.6898
-5.98129 -1.36972 -1.6898
-5.97573 -1.39376 -1.6898
-5.97008 -1.41775 -1.6898
-5.96434 -1.44176 -1.6898
-5.95849 -1.46571 -1.6898
-5.95255 -1.48965 -1.6898
-5.94651 -1.51356 -1.6898
-5.94039 -1.53745 -1.6898
-5.93416 -1.56133 -1.6898
-5.92782 -1.58519 -1.6898
-5.92141 -1.60898 -1.6898
-5.91488 -1.63278 -1.6898
-5.90827 -1.65656 -1.6898
-5.90158 -1.68027 -1.6898
-5.89478 -1.704 -1.6898
-5.88787 -1.72767 -1.6898
-5.88089 -1.75133 -1.6898
-5.87378 -1.77495 -1.6898
-5.8666 -1.79855 -1.6898
-5.85934 -1.82212 -1.6898
-5.85196 -1.84565 -1.6898
-5.8445 -1.86917 -1.6898
-5.83692 -1.89266 -1.6898
-5.82928 -1.9161 -1.6898
-5.82152 -1.93952 -1.6898
-5.81368 -1.96289 -1.6898
-5.80574 -1.98626 -1.6898
-5.79771 -2.00959 -1.6898
-5.78959 -2.03287 -1.6898
-5.78137 -2.05613 -1.6898
-5.77306 -2.07936 -1.6898
-5.76466 -2.10255 -1.6898
-5.75615 -2.12569 -1.6898
-5.74756 -2.14883 -1.6898
-5.73888 -2.17192 -1.6898
-5.7301 -2.19497 -1.6898
-5.72123 -2.21798 -1.6898
-5.71227 -2.24096 -1.6898
-5.70321 -2.26391 -1.6898
-5.69407 -2.28681 -1.6898
-5.68483 -2.30969 -1.6898
-5.6755 -2.33252 -1.6898
-5.66607 -2.35532 -1.6898
-5.65657 -2.37808 -1.6898
-5.64696 -2.40079 -1.6898
-5.63727 -2.42347 -1.6898
-5.62747 -2.44611 -1.6898
-5.61759 -2.46873 -1.6898
-5.60763 -2.49129 -1.6898
-5.59756 -2.5138 -1.6898
-5.58741 -2.53628 -1.6898
-5.57718 -2.55872 -1.6898
-5.56685 -2.58111 -1.6898
-5.55643 -2.60348 -1.6898
-5.54591 -2.62579 -1.6898
-5.5353 -2.64807 -1.6898
-5.52462 -2.6703 -1.6898
-5.51384 -2.69248 -1.6898
-5.50297 -2.71463 -1.6898
-5.49201 -2.73675 -1.6898
-5.48098 -2.75878 -1.6898
-5.46983 -2.7808 -1.6898
-5.45861 -2.80275 -1.6898
-5.44729 -2.82469 -1.6898
-5.43591 -2.84656 -1.6898
-5.42441 -2.8684 -1.6898
-5.41284 -2.89017 -1.6898
-5.40118 -2.91191 -1.6898
-5.38943 -2.9336 -1.6898
-5.37759 -2.95522 -1.6898
-5.36566 -2.97684 -1.6898
-5.35366 -2.99838 -1.6898
-5.34156 -3.01988 -1.6898
-5.32937 -3.04133 -1.6898
-5.31711 -3.06273 -1.6898
-5.30476 -3.08408 -1.6898
-5.29231 -3.10537 -1.6898
-5.27979 -3.12663 -1.6898
-5.26717 -3.14782 -1.6898
-5.25448 -3.16896 -1.6898
-5.2417 -3.19006 -1.6898
-5.22883 -3.21112 -1.6898
-5.21588 -3.2321 -1.6898
-5.20284 -3.25304 -1.6898
-5.18974 -3.27394 -1.6898
-5.17652 -3.29479 -1.6898
-5.16324 -3.31554 -1.6898
-5.14986 -3.33627 -1.6898
-5.13642 -3.35695 -1.6898
-5.12288 -3.37757 -1.6898
-5.10927 -3.39814 -1.6898
-5.09557 -3.41865 -1.6898
-5.08178 -3.43912 -1.6898
-5.0679 -3.45952 -1.6898
-5.05396 -3.47986 -1.6898
-5.03993 -3.50015 -1.6898
-5.02582 -3.5204 -1.6898
-5.01162 -3.54057 -1.6898
-4.99735 -3.56068 -1.6898
-4.983 -3.58073 -1.6898
-4.96856 -3.60073 -1.6898
-4.95405 -3.62068 -1.6898
-4.93945 -3.64057 -1.6898
-4.92479 -3.66039 -1.6898
-4.91003 -3.68017 -1.6898
-4.8952 -3.69986 -1.6898
-4.88028 -3.71951 -1.6898
-4.86529 -3.73911 -1.6898
-4.85021 -3.75863 -1.6898
-4.83508 -3.7781 -1.6898
-4.81984 -3.79751 -1.6898
-4.80454 -3.81684 -1.6898
-4.78916 -3.83613 -1.6898
-4.7737 -3.85534 -1.6898
-4.75815 -3.87451 -1.6898
-4.74255 -3.89362 -1.6898
-4.72685 -3.91264 -1.6898
-4.71109 -3.93162 -1.6898
-4.69524 -3.95052 -1.6898
-4.67933 -3.96936 -1.6898
-4.66334 -3.98813 -1.6898
-4.64727 -4.00686 -1.6898
-4.63112 -4.0255 -1.6898
-4.6149 -4.04409 -1.6898
-4.5986 -4.06262 -1.6898
-4.58224 -4.08105 -1.6898
-4.56579 -4.09945 -1.6898
-4.54927 -4.11778 -1.6898
-4.53268 -4.13604 -1.6898
-4.51603 -4.15422 -1.6898
-4.49928 -4.17233 -1.6898
-4.48248 -4.19039 -1.6898
-4.4656 -4.20837 -1.6898
-4.44864 -4.22629 -1.6898
-4.43161 -4.24413 -1.6898
-4.41452 -4.26191 -1.6898
-4.39735 -4.27963 -1.6898
-4.38012 -4.29728 -1.6898
-4.3628 -4.31484 -1.6898
-4.34542 -4.33235 -1.6898
-4.32797 -4.34978 -1.6898
-4.31045 -4.36715 -1.6898
-4.29285 -4.38442 -1.6898
-4.27521 -4.40166 -1.6898
-4.25747 -4.41882 -1.6898
-4.23968 -4.43589 -1.6898
-4.22181 -4.45289 -1.6898
-4.20388 -4.46983 -1.6898
-4.18587 -4.48671 -1.6898
-4.16779 -4.50348 -1.6898
-4.14967 -4.52021 -1.6898
-4.13145 -4.53686 -1.6898
-4.11319 -4.55342 -1.6898
-4.09484 -4.56992 -1.6898
-4.07645 -4.58634 -1.6898
-4.05798 -4.60271 -1.6898
-4.03943 -4.61896 -1.6898
-4.02084 -4.63518 -1.6898
-4.00218 -4.65129 -1.6898
-3.98345 -4.66734 -1.6898
-3.96466 -4.68332 -1.6898
-3.94579 -4.69922 -1.6898
-3.92687 -4.71504 -1.6898
-3.90788 -4.73078 -1.6898
-3.88883 -4.74646 -1.6898
-3.86972 -4.76207 -1.6898
-3.85055 -4.77758 -1.6898
-3.83131 -4.79301 -1.6898
-3.81201 -4.80839 -1.6898
-3.79266 -4.82365 -1.6898
-3.77323 -4.83889 -1.6898
-3.75375 -4.854 -1.6898
-3.7342 -4.86906 -1.6898
-3.7146 -4.88403 -1.6898
-3.69493 -4.89894 -1.6898
-3.67521 -4.91373 -1.6898
-3.65543 -4.92847 -1.6898
-3.63559 -4.94312 -1.6898
-3.61568 -4.9577 -1.6898
-3.59572 -4.9722 -1.6898
-3.57571 -4.98662 -1.6898
-3.55564 -5.00095 -1.6898
-3.5355 -5.01519 -1.6898
-3.51532 -5.02936 -1.6898
-3.49508 -5.04346 -1.6898
-3.47477 -5.05747 -1.6898
-3.4544 -5.07141 -1.6898
-3.43399 -5.08525 -1.6898
-3.41353 -5.099 -1.6898
-3.393 -5.1127 -1.6898
-3.37243 -5.12627 -1.6898
-3.35179 -5.13979 -1.6898
-3.3311 -5.15322 -1.6898
-3.31035 -5.16658 -1.6898
-3.28956 -5.17984 -1.6898
-3.2687 -5.19303 -1.6898
-3.24781 -5.20611 -1.6898
-3.22685 -5.21914 -1.6898
-3.20584 -5.23207 -1.6898
-3.18479 -5.24491 -1.6898
-3.16367 -5.25767 -1.6898
-3.14252 -5.27034 -1.6898
-3.1213 -5.28294 -1.6898
-3.10004 -5.29545 -1.6898
-3.07873 -5.30787 -1.6898
-3.05736 -5.3202 -1.6898
-3.03596 -5.33244 -1.6898
-3.01449 -5.3446 -1.6898
-2.54789 -4.5601 -1.43851
-2.51533 -4.54461 -1.43043
-2.48313 -4.52931 -1.42246
-2.45128 -4.51416 -1.4146
-2.41977 -4.49919 -1.40684
-2.38856 -4.48429 -1.39917
-2.3577 -4.46953 -1.3916
-2.32712 -4.45487 -1.38412
-2.29657 -4.43981 -1.37655
-2.2656 -4.4234 -1.36863
-2.23467 -4.40657 -1.36063
-2.20409 -4.38996 -1.35275
-2.17382 -4.37341 -1.34495
-2.14388 -4.35703 -1.33725
-2.11428 -4.34084 -1.32966
-2.08501 -4.32483 -1.32218
-2.05607 -4.309 -1.31481
-2.02882 -4.29623 -1.30841
-1.9951 -4.26919 -1.29772
-1.9674 -4.25441 -1.29082
-1.93999 -4.23981 -1.28401
-1.91341 -4.22651 -1.27764
-1.88724 -4.21373 -1.27147
-1.86158 -4.20167 -1.26556
-1.83624 -4.18984 -1.25977
-1.81125 -4.17844 -1.25414
-1.78648 -4.16714 -1.24858
-1.76195 -4.15594 -1.2431
-1.73731 -4.14412 -1.23746
-1.7128 -4.13215 -1.23182
-1.6885 -4.12027 -1.22625
-1.66441 -4.10853 -1.22075
-1.64058 -4.0969 -1.21533
-1.61695 -4.0854 -1.20998
-1.59351 -4.07396 -1.20468
-1.57024 -4.06254 -1.19943
-1.54718 -4.05125 -1.19425
-1.52432 -4.04004 -1.18913
-1.50165 -4.02892 -1.18407
-1.47918 -4.0179 -1.17907
-1.45688 -4.00697 -1.17414
-1.43478 -3.99613 -1.16926
-1.41286 -3.98537 -1.16444
-1.39112 -3.97469 -1.15968
-1.36956 -3.96411 -1.15498
-1.34816 -3.9536 -1.15033
-1.32693 -3.94318 -1.14573
-1.30588 -3.93285 -1.1412
-1.28499 -3.92259 -1.13671
-1.26426 -3.91242 -1.13228
-1.2437 -3.90231 -1.1279
-1.22328 -3.8923 -1.12358
-1.20304 -3.88236 -1.1193
-1.18294 -3.87248 -1.11507
-1.16299 -3.86269 -1.1109
-1.14318 -3.85296 -1.10677
-1.12353 -3.84331 -1.10269
-1.10401 -3.83369 -1.09865
-1.08464 -3.82414 -1.09466
-1.06538 -3.81463 -1.0907
-1.04629 -3.80519 -1.08679
-1.0273 -3.79581 -1.08292
-1.00846 -3.78648 -1.07909
-0.989746 -3.77724 -1.07531
-0.971172 -3.76805 -1.07158
-0.952734 -3.75891 -1.06788
-0.934404 -3.74982 -1.06423
-0.916201 -3.74082 -1.06062
-0.898115 -3.73187 -1.05705
-0.880156 -3.72299 -1.05352
-0.862324 -3.71414 -1.05003
-0.8446 -3.70535 -1.04658
-0.826992 -3.69665 -1.04317
-0.809492 -3.68797 -1.03979
-0.792119 -3.67936 -1.03646
-0.774844 -3.67079 -1.03316
-0.757695 -3.66228 -1.0299
-0.740674 -3.65399 -1.02672
-0.723779 -3.64589 -1.02362
-0.706992 -3.63783 -1.02055
-0.690293 -3.62983 -1.01752
-0.673711 -3.62185 -1.01452
-0.657217 -3.61392 -1.01155
-0.64083 -3.60603 -1.00861
-0.624521 -3.5982 -1.00571
-0.608301 -3.59035 -1.00282
-0.592168 -3.58253 -0.999966
-0.576133 -3.57475 -0.997139
-0.560166 -3.56701 -0.994343
-0.544316 -3.55931 -0.991579
-0.528545 -3.55165 -0.988846
-0.512852 -3.54404 -0.986146
-0.497266 -3.53655 -0.983498
-0.481758 -3.52911 -0.980879
-0.466328 -3.52169 -0.97829
-0.450986 -3.51431 -0.975729
-0.435654 -3.5064 -0.973036
-0.420371 -3.49825 -0.9703
-0.405166 -3.49016 -0.967594
-0.390049 -3.4821 -0.964918
-0.37501 -3.47408 -0.962272
-0.360068 -3.46612 -0.959657
-0.345205 -3.45818 -0.957068
-0.33041 -3.45029 -0.95451
-0.315762 -3.44305 -0.952148
-0.301211 -3.43635 -0.949948
-0.286738 -3.4297 -0.947785
-0.272305 -3.42273 -0.945549
-0.257871 -3.41484 -0.943079
-0.243506 -3.407 -0.940634
-0.229219 -3.3992 -0.938217
-0.21501 -3.39144 -0.935826
-0.200869 -3.38369 -0.933461
-0.186787 -3.376 -0.931123
-0.172783 -3.36832 -0.92881
-0.158857 -3.36069 -0.926521
-0.14499 -3.3531 -0.924258
-0.131182 -3.34555 -0.92202
-0.117451 -3.338 -0.919807
-0.103779 -3.3305 -0.917618
-0.0901953 -3.32329 -0.915525
-0.0766895 -3.31729 -0.913781
-0.0632324 -3.31133 -0.912058
-0.0498242 -3.30536 -0.910354
-0.0364746 -3.29942 -0.908671
-0.0231641 -3.29351 -0.907008
-0.00990234 -3.28761 -0.905364
0.00331055 -3.28172 -0.90374
0.0164648 -3.27585 -0.902134
0.0295801 -3.27 -0.900549
0.0426563 -3.26417 -0.898982
0.0556836 -3.25852 -0.897476
0.0686719 -3.25287 -0.895994
0.0816113 -3.24726 -0.894531
0.0945117 -3.24167 -0.893087
0.107363 -3.23606 -0.891659
0.120186 -3.2305 -0.890251
0.132969 -3.22495 -0.88886
0.145713 -3.21968 -0.887564
0.158633 -3.21852 -0.887409
0.171533 -3.21734 -0.887268
0.184453 -3.21618 -0.887143
0.197344 -3.215 -0.887032
0.210254 -3.21384 -0.886933
0.223145 -3.21264 -0.88685
0.236045 -3.21149 -0.886781
0.248936 -3.2103 -0.886727
0.261826 -3.20914 -0.886686
0.274717 -3.20797 -0.886661
0.288838 -3.22053 -0.890444
0.304033 -3.24339 -0.897101
0.319463 -3.26661 -0.903869
0.335127 -3.29017 -0.910752
0.351025 -3.31407 -0.917752
0.367109 -3.33779 -0.924721
0.383076 -3.35869 -0.930935
0.399268 -3.37989 -0.937246
0.415674 -3.40135 -0.943653
0.432305 -3.42309 -0.950161
0.44916 -3.44514 -0.956772
0.46626 -3.46748 -0.963487
0.483604 -3.49011 -0.970309
0.501348 -3.51423 -0.97757
0.519521 -3.53978 -0.985246
0.538096 -3.56646 -0.993267
0.556963 -3.59356 -1.00143
0.576914 -3.62596 -1.0111
0.597461 -3.66018 -1.0213
0.618428 -3.6951 -1.03173
0.639814 -3.73074 -1.04239
0.662187 -3.77021 -1.05415
0.685723 -3.81414 -1.0672
0.709932 -3.85961 -1.08071
0.734775 -3.90635 -1.09462
0.760264 -3.95429 -1.1089
0.786426 -4.00351 -1.12358
0.813291 -4.05403 -1.13867
0.841318 -4.10807 -1.15479
0.870811 -4.16676 -1.17226
0.914326 -4.28882 -1.20762
0.970215 -4.46288 -1.25772
1.32762 -5.99079 -1.6898
1.35168 -5.9854 -1.6898
1.37573 -5.97991 -1.6898
1.39977 -5.97435 -1.6898
1.42376 -5.96866 -1.6898
1.44775 -5.9629 -1.6898
1.4717 -5.95702 -1.6898
1.49564 -5.95105 -1.6898
1.51955 -5.94499 -1.6898
1.54343 -5.93883 -1.6898
1.56729 -5.93259 -1.6898
1.59113 -5.92624 -1.6898
1.61494 -5.91979 -1.6898
1.63873 -5.91325 -1.6898
1.66249 -5.90663 -1.6898
1.68621 -5.89988 -1.6898
1.70992 -5.89307 -1.6898
1.73359 -5.88613 -1.6898
1.75725 -5.87913 -1.6898
1.78086 -5.87201 -1.6898
1.80445 -5.86481 -1.6898
1.82802 -5.85751 -1.6898
1.85155 -5.85012 -1.6898
1.87506 -5.84264 -1.6898
1.89852 -5.83502 -1.6898
1.92196 -5.82735 -1.6898
1.94538 -5.81959 -1.6898
1.96875 -5.81172 -1.6898
1.9921 -5.80375 -1.6898
2.01541 -5.7957 -1.6898
2.0387 -5.78756 -1.6898
2.06194 -5.77931 -1.6898
2.08516 -5.77098 -1.6898
2.10834 -5.76255 -1.6898
2.13149 -5.75404 -1.6898
2.1546 -5.74541 -1.6898
2.17769 -5.7367 -1.6898
2.20072 -5.7279 -1.6898
2.22374 -5.71902 -1.6898
2.24671 -5.71003 -1.6898
2.26963 -5.70094 -1.6898
2.29254 -5.69178 -1.6898
2.3154 -5.68252 -1.6898
2.33821 -5.67316 -1.6898
2.36102 -5.66372 -1.6898
2.38376 -5.65418 -1.6898
2.40647 -5.64455 -1.6898
2.42915 -5.63483 -1.6898
2.45178 -5.62503 -1.6898
2.47437 -5.61512 -1.6898
2.49692 -5.60513 -1.6898
2.51942 -5.59504 -1.6898
2.5419 -5.58486 -1.6898
2.56434 -5.57462 -1.6898
2.58672 -5.56426 -1.6898
2.60907 -5.55381 -1.6898
2.63137 -5.54327 -1.6898
2.65363 -5.53266 -1.6898
2.67585 -5.52194 -1.6898
2.69803 -5.51113 -1.6898
2.72017 -5.50024 -1.6898
2.74225 -5.48926 -1.6898
2.7643 -5.4782 -1.6898
2.7863 -5.46704 -1.6898
2.80825 -5.45581 -1.6898
2.83017 -5.44446 -1.6898
2.85202 -5.43306 -1.6898
2.87384 -5.42153 -1.6898
2.89562 -5.40994 -1.6898
2.91734 -5.39827 -1.6898
2.93901 -5.38647 -1.6898
2.96064 -5.37462 -1.6898
2.98224 -5.3627 -1.6898
3.00376 -5.35064 -1.6898
3.02523 -5.33853 -1.6898
3.04669 -5.32633 -1.6898
3.06808 -5.31403 -1.6898
3.0894 -5.30165 -1.6898
3.11069 -5.2892 -1.6898
3.13193 -5.27665 -1.6898
3.15312 -5.26402 -1.6898
3.17426 -5.25129 -1.6898
3.19533 -5.23849 -1.6898
3.21637 -5.22561 -1.6898
3.23735 -5.21265 -1.6898
3.25828 -5.19958 -1.6898
3.27915 -5.18645 -1.6898
3.29998 -5.17323 -1.6898
3.32074 -5.1599 -1.6898
3.34147 -5.14652 -1.6898
3.36212 -5.13305 -1.6898
3.38273 -5.11949 -1.6898
3.40329 -5.10586 -1.6898
3.42379 -5.09214 -1.6898
3.44423 -5.07832 -1.6898
3.46461 -5.06444 -1.6898
