ply
format ascii 1.0
comment Created by Open3D
element vertex 1924
property float x
property float y
property float z
end_header
-23.6384 -18.7789 5.32327
-20.6393 -16.5321 4.66282
-20.4946 -16.5519 4.64511
-20.3511 -16.5716 4.62764
-20.2087 -16.5912 4.61041
-20.0676 -16.6108 4.5934
-19.9275 -16.6304 4.57662
-19.7887 -16.6499 4.56006
-19.6509 -16.6694 4.54372
-22.2984 -19.0698 5.17355
-22.3651 -19.2831 5.20697
-24.5058 -21.3012 5.72527
-24.4032 -21.3848 5.72133
-22.5683 -19.9378 5.30988
-22.6372 -20.1612 5.34512
-22.6864 -20.3692 5.37603
-22.7213 -20.5662 5.40385
-2.44532 -2.23132 0.583703
-2.44245 -2.24676 0.585168
-2.43955 -2.26227 0.586649
-2.33423 -2.18212 0.563427
-2.3155 -2.18212 0.561015
-2.29693 -2.18212 0.558639
-2.27852 -2.18213 0.556292
-2.26705 -2.18868 0.555635
-2.26706 -2.20636 0.55781
-2.26707 -2.22419 0.560004
-2.31631 -2.29085 0.574438
-2.29777 -2.29085 0.572119
-2.27938 -2.29086 0.569828
-2.26113 -2.29087 0.567564
-2.24303 -2.29088 0.565327
-2.22507 -2.29088 0.563117
-2.20725 -2.29089 0.560934
-2.18957 -2.2909 0.558776
-2.17202 -2.2909 0.556643
-2.08834 -2.22046 0.537484
-2.08808 -2.23814 0.539725
-2.09125 -2.25968 0.542889
-2.09447 -2.28149 0.546102
-14.9868 -25.1345 5.15992
-14.5601 -24.6435 5.04708
-14.1519 -24.1739 4.93921
-13.8094 -23.808 4.85306
-13.6765 -23.7986 4.83992
-13.5443 -23.7895 4.82695
-12.1049 -21.4615 4.34468
-12.1205 -21.6926 4.38156
-12.107 -21.8744 4.40842
-12.0442 -21.9689 4.41766
-11.9812 -22.064 4.42707
-11.9181 -22.1598 4.43665
-11.855 -22.2564 4.4464
-11.7917 -22.3537 4.45633
-11.7283 -22.4517 4.46645
-12.5528 -24.2673 4.81755
-12.4312 -24.2709 4.80831
-12.4172 -24.4855 4.8409
-12.346 -24.5898 4.85165
-12.2689 -24.6832 4.86032
-11.3227 -23.0111 4.52207
-11.2346 -23.0658 4.5239
-11.1467 -23.1208 4.52588
-11.0588 -23.1762 4.52798
-10.9709 -23.232 4.53022
-10.8831 -23.288 4.53258
-10.7954 -23.3444 4.53508
-10.6897 -23.3621 4.53011
-10.5663 -23.3398 4.51753
-10.4437 -23.3181 4.50515
-10.3219 -23.2968 4.49299
-11.1971 -25.5489 4.91861
-9.46615 -21.8377 4.19678
-9.312 -21.7209 4.16711
-9.16015 -21.6061 4.13799
-9.01052 -21.4932 4.1094
-8.85588 -21.3648 4.078
-8.68832 -21.2011 4.04006
-8.52407 -21.041 4.00299
-8.36297 -20.8842 3.96672
-7.80062 -19.7091 3.73754
-7.74034 -19.7889 3.74674
-7.67523 -19.8574 3.75384
-7.60082 -19.9024 3.75654
-7.52635 -19.9476 3.75933
-7.45181 -19.993 3.76222
-7.37719 -20.0386 3.76519
-7.30251 -20.0844 3.76825
-7.22776 -20.1305 3.7714
-7.15225 -20.4353 3.81761
-7.03657 -20.367 3.79954
-6.92208 -20.2996 3.78175
-6.80877 -20.2332 3.76425
-6.69661 -20.1678 3.74703
-6.58558 -20.1032 3.73009
-6.47565 -20.0396 3.71343
-6.36681 -19.9769 3.69703
-6.259 -19.915 3.68089
-6.15224 -19.8539 3.66501
-6.04648 -19.7937 3.64938
-5.84631 -19.4175 3.57566
-6.51702 -21.9646 4.03983
-6.43726 -22.02 4.04523
-6.35347 -22.0623 4.04828
-6.24649 -22.0233 4.03649
-6.17907 -22.1241 4.05036
-6.09187 -22.1552 4.05155
-6.00467 -22.1866 4.05284
-5.91746 -22.2182 4.05423
-5.83024 -22.2499 4.05572
-5.743 -22.2819 4.05731
-5.65573 -22.3141 4.05899
-5.84705 -23.4646 4.26396
-4.78327 -20.6021 3.72932
-4.77869 -20.9646 3.79143
-4.77415 -21.3402 3.85586
-4.76962 -21.7296 3.92272
-4.76512 -22.1335 3.99216
-4.73567 -22.4348 4.04302
-3.736 -23.1809 4.14016
-3.81489 -24.2917 4.33577
6.75587 -14.6866 2.8505
16.8616 -35.1555 6.87499
16.9495 -34.9775 6.85346
17.0773 -34.8832 6.84837
16.6599 -20.4175 4.64655
21.2464 9.38794 4.09572
21.1899 9.46497 4.09214
21.1794 9.5626 4.09751
21.1688 9.66045 4.10294
21.1581 9.75851 4.10843
20.9442 9.76215 4.07448
20.7263 9.76223 4.0397
20.5122 9.76231 4.00559
20.3016 9.76239 3.9721
20.0946 9.76248 3.93923
19.8909 9.76255 3.90697
19.6905 9.76263 3.87529
19.4934 9.76271 3.84418
19.2994 9.76278 3.81363
19.1084 9.76285 3.78362
18.9204 9.76293 3.75414
18.7354 9.763 3.72518
18.5531 9.76307 3.69672
18.3737 9.76314 3.66875
18.1969 9.76321 3.64126
18.0227 9.76327 3.61423
17.8511 9.76334 3.58766
17.682 9.7634 3.56154
16.8447 9.38963 3.40046
16.6867 9.38969 3.37616
16.531 9.38975 3.35226
16.5398 9.48287 3.36174
16.569 9.58834 3.37549
16.5987 9.69479 3.38945
16.6288 9.80226 3.40362
16.6594 9.91074 3.41801
16.6904 10.0203 3.43261
16.722 10.1309 3.44745
16.754 10.2426 3.46251
16.7865 10.3554 3.47781
16.8195 10.4693 3.49334
16.8531 10.5844 3.50911
16.8871 10.7007 3.52514
16.9217 10.8182 3.5414
16.9569 10.937 3.55793
16.9925 11.057 3.57471
17.0288 11.1782 3.59176
17.0656 11.3008 3.60908
17.103 11.4248 3.62667
17.141 11.5501 3.64455
17.1796 11.6768 3.6627
17.2188 11.8049 3.68116
17.2587 11.9345 3.6999
17.2992 12.0656 3.71895
17.3403 12.1982 3.73831
17.3821 12.3323 3.75798
17.4246 12.4681 3.77797
17.4678 12.6055 3.7983
17.5117 12.7446 3.81895
17.5564 12.8853 3.83996
17.6018 13.0278 3.8613
17.6479 13.1721 3.88301
17.6948 13.3182 3.90508
17.7425 13.4662 3.92753
17.791 13.6161 3.95035
17.8404 13.7679 3.97356
17.8906 13.9218 3.99717
17.9416 14.0777 4.02119
17.9936 14.2356 4.04563
18.0464 14.3958 4.07048
18.1002 14.5581 4.09578
18.1549 14.7227 4.12152
18.2106 14.8896 4.14772
18.2672 15.0589 4.17438
18.3249 15.2306 4.20152
18.3837 15.4047 4.22915
18.4435 15.5815 4.25728
18.5043 15.7608 4.28592
18.5663 15.9429 4.31509
18.6295 16.1277 4.34481
18.6938 16.3153 4.37507
18.7594 16.5058 4.4059
18.8261 16.6993 4.43731
18.8942 16.8958 4.46932
18.9635 17.0955 4.50194
19.0342 17.2985 4.53519
19.1062 17.5047 4.56908
19.1797 17.7143 4.60364
19.2546 17.9275 4.63888
19.3309 18.1442 4.67481
19.4088 18.3646 4.71147
19.4883 18.5889 4.74887
19.5694 18.8171 4.78702
19.6522 19.0493 4.82596
19.7366 19.2856 4.8657
19.8229 19.5263 4.90627
21.239 21.0901 5.27771
21.0684 21.0896 5.25634
20.8992 21.0892 5.23525
20.7315 21.0888 5.21443
20.5651 21.0884 5.19385
20.4 21.088 5.17351
20.2361 21.0876 5.15342
20.0735 21.0872 5.13356
19.9122 21.0869 5.11395
19.7521 21.0865 5.09456
19.5932 21.0861 5.0754
19.4356 21.0858 5.05646
19.279 21.0854 5.03775
19.1236 21.085 5.01926
18.9694 21.0847 5.00098
18.8351 21.1055 4.98791
18.7794 21.2141 4.9957
18.7555 21.3595 5.01214
18.7314 21.5058 5.02877
18.7072 21.6532 5.0456
18.6828 21.8015 5.06262
18.6583 21.9508 5.07984
18.6336 22.1012 5.09726
18.6087 22.2526 5.11489
18.5992 22.4238 5.13701
18.5993 22.6082 5.16209
18.5993 22.7944 5.1875
18.5994 22.9825 5.21324
18.5995 23.1725 5.23933
18.5995 23.3644 5.26576
18.5996 23.5582 5.29255
18.6268 23.7886 5.32745
18.7027 24.0844 5.37681
18.8004 24.4122 5.43307
21.5826 28.2591 6.26987
6.74362 19.1442 3.57895
-20.9557 91.9344 16.6263
-21.2843 91.6736 16.5945
-21.6119 91.4147 16.5632
-21.9384 91.1577 16.5325
-22.4876 91.8158 16.6681
-22.8372 91.6469 16.654
-23.1731 91.4271 16.6308
-23.5067 91.2021 16.607
-23.8368 90.9681 16.5817
-24.166 90.7355 16.5568
-24.4578 90.3687 16.5077
-25.0687 91.1709 16.6725
-25.6573 91.8657 16.8183
-20.7096 69.7983 12.8376
-20.9413 69.5527 12.8078
-21.1224 69.1461 12.7485
-21.2411 68.5473 12.6537
-21.6192 68.7882 12.7141
-21.7831 68.348 12.6489
-21.919 67.8307 12.5693
-21.9091 66.8797 12.4094
-22.3081 67.1839 12.4823
-22.6162 67.2071 12.5034
-22.9184 67.21 12.521
-23.2216 67.2135 12.5389
-19.4307 54.8093 10.2537
-34.0396 91.3273 17.1857
-19.0393 50.4613 9.50994
-19.1058 50.0277 9.44264
-19.1717 49.601 9.37658
-19.2371 49.1813 9.31177
-19.3019 48.7683 9.2482
-22.3279 53.2597 10.183
-22.5432 53.1728 10.1836
-31.8195 74.2212 14.2392
-22.2176 51.2543 9.85007
-22.1 50.4264 9.70796
-22.1671 50.0315 9.64901
-22.3703 49.9471 9.65001
-21.6903 47.9116 9.2735
-21.8453 47.7422 9.25764
-22.1727 47.9473 9.31462
-22.5541 48.2619 9.39328
-22.9425 48.5829 9.47363
-23.1635 48.5445 9.48422
-23.1942 48.1102 9.41751
-24.2151 49.7159 9.75081
-24.4263 49.6417 9.75543
-24.6378 49.5675 9.76023
-23.454 46.7138 9.21681
-23.6028 46.5426 9.20167
-23.732 46.3347 9.17935
-23.8215 46.0523 9.14231
-23.8851 45.7238 9.0961
-23.9483 45.3992 9.05059
-24.0106 45.0772 9.00558
-24.3114 45.203 9.05016
-24.6466 45.3879 9.10693
-24.9862 45.5756 9.16467
-25.2671 45.6515 9.20029
-25.519 45.6724 9.22511
-25.6152 45.4149 9.19381
-26.0968 45.837 9.30043
-26.5549 46.2087 9.39743
-38.558 66.4753 13.5504
-35.602 60.8146 12.4256
-35.4254 59.9587 12.2798
-35.2025 59.0383 12.1201
-35.4136 58.8531 12.1112
-27.1687 44.7431 9.22998
-27.4422 44.7866 9.26165
-36.0304 58.2756 12.0809
-36.2093 58.0421 12.0626
-27.7497 44.086 9.18531
-27.2829 42.9604 8.97357
-26.7572 41.7607 8.74536
-26.6794 41.2731 8.66563
-26.8238 41.1329 8.65876
-26.9681 40.993 8.65208
-27.1123 40.8536 8.64558
-27.2564 40.7145 8.63926
-27.3824 40.5491 8.62746
-27.4666 40.3234 8.60286
-27.5505 40.0991 8.57857
-27.634 39.8762 8.55458
-27.8968 39.9118 8.5862
-28.0211 39.7484 8.57522
-28.1452 39.5856 8.56443
-28.2691 39.4234 8.55385
-28.4818 39.3847 8.57023
-28.7701 39.4484 8.6092
-29.0612 39.5129 8.64869
-29.3552 39.5783 8.68876
-29.652 39.6444 8.72939
-29.9271 39.6786 8.76333
-30.19 39.6942 8.79351
-30.4548 39.7101 8.82407
-30.7216 39.7263 8.85505
-39.0191 46.8507 10.7509
-38.7863 46.1922 10.6355
-38.4102 45.3727 10.4822
-38.3781 44.967 10.424
-38.1409 44.327 10.3111
-38.2257 44.0659 10.2861
-38.4314 43.9449 10.2938
-38.5674 43.7443 10.2831
-38.6857 43.5245 10.2679
-22.0479 24.6058 5.82561
-22.0922 24.4567 5.8113
-22.1368 24.3088 5.79725
-22.1815 24.1621 5.78348
-22.2264 24.0165 5.76998
-22.2715 23.8721 5.75674
-22.3169 23.7287 5.74376
-22.3625 23.5864 5.73103
-21.4065 22.3971 5.46293
-41.1277 42.6862 10.4519
-36.3324 37.407 9.19495
-36.368 37.1437 9.16609
-36.3669 36.8452 9.12842
-36.3553 36.5384 9.08856
-37.0536 36.942 9.22592
-36.9722 36.5657 9.16899
-36.8863 36.1885 9.11152
-37.1202 36.1263 9.13337
-29.5089 28.4888 7.23239
-36.4838 34.9402 8.90737
-37.0111 35.1611 9.00152
-25.4043 23.9409 6.15517
-25.3317 23.681 6.11447
-25.2604 23.4247 6.07447
-25.1903 23.1721 6.03517
-25.1214 22.9229 5.99653
-24.964 22.5961 5.93721
-24.291 21.8099 5.75628
-24.4124 21.7423 5.76428
-24.5342 21.6745 5.77241
-24.6564 21.6067 5.78069
-21.3446 18.5533 4.9867
-21.1169 18.2069 4.91638
-20.8965 17.8709 4.84829
-25.0751 21.2706 5.79791
-25.1039 21.122 5.78488
-25.1326 20.9742 5.77203
-25.1614 20.8272 5.75935
-21.3014 17.4883 4.85968
-21.2166 17.2764 4.82445
-21.1333 17.0677 4.78988
-20.5382 16.4512 4.63998
-20.5937 16.3602 4.63762
-20.6493 16.2693 4.63536
-20.7049 16.1786 4.63321
-20.7378 16.0706 4.62609
-19.3038 14.8354 4.29285
-20.4069 15.5531 4.52423
-20.1979 15.2659 4.46426
-20.1824 15.1271 4.44735
-20.2958 15.0851 4.45895
-20.4101 15.043 4.47072
-20.5251 15.0008 4.48267
-20.6409 14.9585 4.4948
-20.7576 14.9161 4.5071
-20.8751 14.8737 4.5196
-20.9934 14.8311 4.53227
-21.0925 14.7744 4.5408
-21.1357 14.6784 4.53737
-21.2698 14.6451 4.55349
-21.3591 14.5804 4.56002
-21.4488 14.5155 4.56667
-21.5389 14.4507 4.57346
-21.6295 14.3857 4.58037
-21.7205 14.3206 4.58741
-21.812 14.2554 4.59459
-21.8515 14.1562 4.5909
-21.9427 14.0904 4.59811
-22.089 14.0593 4.61689
-22.717 14.331 4.73608
-22.9616 14.3566 4.775
-23.2106 14.3828 4.81472
-23.4641 14.4097 4.85526
-23.7225 14.4373 4.89667
-48.4813 29.2389 9.9829
-46.3201 27.6822 9.51489
-46.6562 27.6291 9.56104
-22.3029 13.0867 4.55961
-22.4871 13.0735 4.58649
-22.6618 13.0534 4.61137
-22.8396 13.0339 4.63685
-23.0206 13.0147 4.66294
-23.2049 12.9961 4.68965
-23.3926 12.978 4.71701
-23.5838 12.9604 4.74503
-23.7786 12.9433 4.77371
-23.9772 12.9267 4.8031
-24.1796 12.9106 4.83321
-21.2575 11.2408 4.24005
-21.1384 11.0693 4.20739
-24.5043 12.7066 4.86712
-24.5333 12.5968 4.8628
-24.5628 12.4874 4.85865
-24.5926 12.3784 4.85467
-24.6229 12.2698 4.85086
-22.382 11.0411 4.40062
-22.3862 10.9315 4.39277
-22.4126 10.833 4.38937
-22.5231 10.7749 4.40249
-24.7799 11.7324 4.83435
-40.2849 18.8756 7.8444
-40.3207 18.695 7.83667
-28.8637 13.2422 5.5995
-40.3934 18.3356 7.82189
-40.363 18.1265 7.80183
-39.657 17.6182 7.65162
-39.6524 17.4256 7.63714
-39.6483 17.234 7.62294
-39.6447 17.0433 7.60902
-39.611 16.8405 7.5895
-39.3774 16.5546 7.53193
-40.1217 16.678 7.66142
-42.1384 17.318 8.03314
-42.4416 17.2435 8.07768
-42.5263 17.0791 8.08067
-42.4174 16.8376 8.04704
-42.5109 16.6772 8.05199
-39.2032 15.198 7.41385
-39.3469 15.0721 7.4295
-31.7981 12.0341 5.99496
-31.802 11.8897 5.98664
-31.8061 11.7457 5.97847
-31.8105 11.6022 5.97047
-31.8151 11.4592 5.96265
-31.82 11.3167 5.955
-31.2597 10.976 5.84184
-31.3197 10.8559 5.84485
-31.3799 10.7356 5.84798
-31.4403 10.6153 5.85123
-31.5008 10.4949 5.8546
-31.5444 10.3687 5.85491
-31.5861 10.2419 5.85495
-31.6279 10.1151 5.85512
-31.6125 9.97028 5.84479
-31.5815 9.82111 5.83173
-31.48 9.65094 5.80577
-31.0488 9.38237 5.71924
-30.1245 8.97103 5.54229
-31.8303 9.33991 5.84917
-31.8337 9.2021 5.84296
-31.8374 9.06463 5.8369
-31.8414 8.92753 5.83099
-31.8455 8.79078 5.82524
-31.85 8.65436 5.81964
-31.8547 8.51828 5.8142
-31.8596 8.38254 5.8089
-27.4184 7.09627 4.9939
-27.486 6.996 5.00105
-27.5539 6.89548 5.00832
-27.6132 6.79247 5.0141
-27.6417 6.68175 5.01436
-27.6705 6.57109 5.01474
-27.6994 6.46045 5.01524
-27.5655 6.31247 4.98636
-27.5253 6.18691 4.97455
-27.23 6.00562 4.91677
-27.8177 6.01812 5.01848
-27.8478 5.90755 5.01959
-27.8782 5.79697 5.02082
-27.9088 5.6864 5.02218
-27.9397 5.57582 5.02366
-27.9708 5.46519 5.02527
-28.0021 5.35454 5.02699
-28.0338 5.24386 5.02885
-28.0656 5.13313 5.03081
-28.0977 5.02235 5.03291
-28.1301 4.91154 5.03513
-28.1627 4.80064 5.03747
-28.1956 4.68969 5.03995
-28.2287 4.57867 5.04253
-28.2621 4.46756 5.04525
-28.2958 4.35635 5.04809
-28.3297 4.24508 5.05106
-28.3639 4.13368 5.05416
-28.3984 4.0222 5.05739
-28.4332 3.91058 5.06073
-28.4566 3.79731 5.06215
-28.4689 3.68254 5.06166
-28.4507 3.56396 5.05583
-28.3884 3.44028 5.04226
-46.8856 5.49076 8.3237
-20.6955 2.33935 3.67241
-20.6371 2.24875 3.66041
-20.5791 2.15876 3.64856
-20.5718 2.07443 3.64575
-20.6128 1.99489 3.65158
-20.654 1.91511 3.65748
-20.9112 1.85421 3.70168
-46.6296 3.94579 8.25144
-46.592 3.75404 8.24205
-46.5546 3.56275 8.23284
-30.1449 2.18506 5.32931
-30.5706 2.09241 5.40304
-31.0109 1.99733 5.47938
-31.1152 1.87849 5.49645
-31.1388 1.75431 5.49931
-31.1629 1.63001 5.50237
-31.1876 1.50561 5.50562
-31.2129 1.38109 5.50905
-31.2387 1.25645 5.51268
-35.4641 1.28362 6.25736
-35.6243 1.14605 6.28478
-35.7719 1.00688 6.31005
-35.7679 0.862869 6.30867
-35.7654 0.71896 6.30767
-35.7645 0.575129 6.30706
-35.7653 0.431338 6.30684
-35.7675 0.287568 6.30699
-35.7713 0.143804 6.30749
-35.9616 1.2207e-05 5.93087
-36.0533 -0.144949 5.94605
-36.1461 -0.290625 5.9615
-36.24 -0.437078 5.97723
-33.5518 -0.539546 5.53416
-33.9777 -0.683037 5.60482
-32.3138 -0.779553 5.33083
-32.5118 -0.915124 5.36406
-32.713 -1.05239 5.3979
-32.9173 -1.19147 5.43236
-33.1249 -1.33234 5.46747
-33.2928 -1.47315 5.49611
-33.5191 -1.61819 5.5345
-33.5662 -1.75576 5.54339
-33.6125 -1.89369 5.55226
-33.6595 -2.03211 5.56131
-33.7069 -2.171 5.57056
-33.755 -2.31039 5.57998
-33.8036 -2.45029 5.5896
-33.8527 -2.59069 5.5994
-33.9025 -2.73161 5.6094
-33.9527 -2.87309 5.61959
-34.0036 -3.01512 5.62997
-31.9807 -2.96537 5.29697
-34.1072 -3.30087 5.65133
-34.1599 -3.44464 5.6623
-34.2132 -3.58901 5.67348
-34.2256 -3.72947 5.67799
-34.2115 -3.86715 5.67819
-31.9662 -3.74354 5.30798
-34.1841 -4.14268 5.67899
-34.1708 -4.28052 5.67959
-30.3458 -3.92532 5.0464
-30.1939 -4.02915 5.02379
-30.0435 -4.13208 5.00149
-29.5536 -4.18581 4.9227
-29.5242 -4.30279 4.92065
-29.4949 -4.41967 4.91869
-29.3601 -4.52021 4.8992
-29.4367 -4.65324 4.91506
-29.4078 -4.76991 4.9134
-29.3632 -4.88388 4.90918
-29.3159 -4.99723 4.9046
-29.2689 -5.11038 4.90013
-29.222 -5.22333 4.89576
-29.1754 -5.33611 4.8915
-29.129 -5.44872 4.88735
-29.0827 -5.56117 4.8833
-29.1146 -5.68867 4.89245
-29.2448 -5.83625 4.91823
-29.3765 -5.98544 4.94439
-29.2981 -6.09224 4.93528
-29.5647 -6.27178 4.9844
-29.7259 -6.43094 5.01589
-29.8188 -6.57662 5.03598
-29.9125 -6.72352 5.05634
-30.0072 -6.87163 5.07697
-35.7699 -8.34276 6.0576
-35.9525 -8.53789 6.09428
-36.0872 -8.72328 6.12301
-36.159 -8.89465 6.14122
-46.6554 -11.6757 7.93181
-46.5801 -11.856 7.92705
-46.208 -11.9593 7.87185
-46.1781 -12.1499 7.87501
-46.1484 -12.3406 7.87834
-37.3317 -10.1439 6.38008
-37.2588 -10.2851 6.37465
-37.1865 -10.4262 6.36939
-37.1148 -10.5672 6.36434
-37.0438 -10.7081 6.35948
-36.9732 -10.849 6.35481
-36.9024 -10.9895 6.35017
-36.7006 -11.0902 6.32307
-36.501 -11.1902 6.29638
-36.3036 -11.2896 6.2701
-36.1083 -11.3882 6.24424
-47.877 -15.3119 8.28999
-36.0366 -12.1672 6.27287
-36.3743 -12.4443 6.3403
-36.5406 -12.6655 6.37811
-36.7098 -12.8897 6.41664
-36.4854 -12.9759 6.38649
-36.196 -13.0371 6.34495
-35.9106 -13.0976 6.3041
-35.6291 -13.1575 6.26392
-35.5196 -13.2795 6.25399
-35.4692 -13.4235 6.25458
-35.4189 -13.5675 6.25528
-35.3687 -13.7115 6.2561
-2.45432 -0.962842 0.434812
-2.44026 -0.968662 0.433013
-2.42631 -0.974438 0.431223
-2.41959 -0.983049 0.430722
-2.41557 -0.992749 0.430714
-2.41156 -1.00245 0.430714
-2.40754 -1.01215 0.43072
-2.40709 -1.02337 0.431372
-2.41288 -1.0373 0.433153
-2.41871 -1.05135 0.434956
-34.807 -15.2963 6.27033
-34.7609 -15.4431 6.27316
-34.7554 -15.6082 6.28343
-35.0337 -15.9028 6.34526
-35.318 -16.2033 6.40848
-35.5213 -16.4698 6.45734
-35.7033 -16.7289 6.5026
-37.4709 -17.7411 6.83746
-37.6054 -17.9902 6.87514
-37.7416 -18.2422 6.91339
-37.8795 -18.497 6.95222
-38.0192 -18.755 6.99165
-34.0342 -18.8818 6.41896
-33.5417 -18.7854 6.34027
-21.6845 -15.4504 4.39119
-21.1096 -15.1691 4.28709
-24.7512 -18.0895 5.05603
-24.634 -18.1562 5.04696
-24.5173 -18.2227 5.03802
-24.4011 -18.2891 5.02921
-24.273 -18.3459 5.01795
-24.0921 -18.3618 4.99578
-23.9129 -18.3777 4.97391
-20.7338 -16.0675 4.32605
-20.5894 -16.0885 4.30939
-20.4463 -16.1094 4.29294
-20.3043 -16.1302 4.27671
-20.1635 -16.151 4.2607
-20.0239 -16.1717 4.24489
-19.8662 -16.1768 4.22522
-19.7088 -16.1809 4.20556
-19.5532 -16.185 4.18619
-19.399 -16.1893 4.16709
-19.2465 -16.1937 4.14827
-19.0955 -16.1982 4.12972
-23.3308 -19.9528 5.06299
-23.4115 -20.1853 5.09807
-23.3376 -20.2857 5.09969
-23.2307 -20.3573 5.09418
-23.1244 -20.4291 5.08884
-2.50457 -2.23064 0.553134
-2.50237 -2.24678 0.554637
-2.49962 -2.26252 0.55604
-2.49685 -2.27834 0.557455
-2.4903 -2.29078 0.558045
-2.4703 -2.29079 0.555623
-2.33416 -2.18205 0.526969
-2.31543 -2.18206 0.524718
-2.29687 -2.18206 0.522495
-2.27846 -2.18206 0.520296
-2.26699 -2.18862 0.519685
-2.267 -2.2063 0.521718
-2.26701 -2.22413 0.52377
-2.31631 -2.29085 0.537286
-2.29777 -2.29085 0.535116
-2.27938 -2.29086 0.532973
-2.26113 -2.29087 0.530856
-2.24303 -2.29088 0.528764
-2.22507 -2.29088 0.526696
-2.20725 -2.29089 0.524654
-2.18956 -2.2909 0.522635
-2.17202 -2.2909 0.520641
-2.1546 -2.29091 0.51867
-2.13732 -2.29092 0.516722
-2.12017 -2.29092 0.514797
-2.04773 -2.23058 0.499383
-2.05066 -2.25187 0.502301
-2.05363 -2.27342 0.505263
-2.05665 -2.29525 0.508271
-14.4696 -23.8294 4.5978
-14.3695 -23.8805 4.59646
-13.9025 -23.316 4.47703
-13.7709 -23.3078 4.46478
-13.6401 -23.2997 4.4527
-13.51 -23.2918 4.44077
-13.3807 -23.2841 4.429
-13.2522 -23.2765 4.41739
-13.1244 -23.2691 4.40593
-12.9973 -23.2618 4.39463
-12.8709 -23.2547 4.38348
-12.7453 -23.2477 4.37247
-12.6203 -23.2409 4.36161
-12.4889 -23.2211 4.34844
-12.3577 -23.2001 4.33517
-12.4829 -23.664 4.41244
-12.4164 -23.7689 4.42266
-12.3496 -23.8744 4.43302
-12.2789 -23.9735 4.44222
-12.2033 -24.0637 4.4498
-12.1274 -24.1543 4.4575
-10.5375 -21.1998 3.90442
-10.4184 -21.1733 3.89179
-10.3001 -21.1472 3.87936
-10.1828 -21.1216 3.86713
-10.0664 -21.0965 3.85509
-9.95086 -21.0719 3.84324
-9.83615 -21.0477 3.83159
-9.70641 -20.9896 3.81388
-9.5287 -20.8247 3.77692
-9.35462 -20.6634 3.74082
-9.18403 -20.5056 3.70553
-9.01682 -20.3511 3.67105
-7.36259 -23.1013 3.99874
-7.25883 -23.0963 3.99279
-6.56336 -21.1807 3.65704
-6.4861 -21.2329 3.66152
-6.40668 -21.2787 3.66495
-6.32215 -21.3078 3.66556
-6.23762 -21.3371 3.66626
-6.14561 -21.3405 3.66257
-6.03333 -21.2718 3.64659
-5.92215 -21.2041 3.63088
-5.73183 -20.8458 3.56554
-5.52765 -20.4241 3.48957
-6.13854 -23.0483 3.93369
-5.67449 -22.0161 3.74962
-5.62357 -22.1872 3.77488
-5.57201 -22.3609 3.80058
-5.51981 -22.5371 3.82674
-5.46695 -22.7162 3.85338
-5.40574 -22.8655 3.87498
-5.33813 -22.9919 3.89274
-5.26995 -23.1198 3.91077
-5.20119 -23.249 3.92907
-5.13184 -23.3797 3.94764
-5.06187 -23.512 3.9665
-4.04399 -20.8083 3.49596
-2.98256 -23.2411 3.86442
-2.93756 -23.6429 3.92923
-2.86236 -23.8198 3.95669
-2.78616 -23.9998 3.98469
-2.70892 -24.1828 4.01323
6.75569 -14.6863 2.66607
16.6429 -35.0602 6.40062
16.7483 -34.9193 6.38713
16.8215 -34.7132 6.36176
17.1683 -35.069 6.43957
17.2585 -34.547 6.36899
17.4228 -34.5282 6.37837
16.659 -20.4164 4.34582
21.7167 9.38776 3.90185
21.5931 9.43758 3.88648
21.5832 9.53677 3.89156
21.5731 9.63616 3.8967
21.563 9.73579 3.9019
21.3913 9.76198 3.8779
21.1658 9.76206 3.84411
20.9442 9.76215 3.81095
20.7263 9.76223 3.77843
20.5122 9.76231 3.74652
20.3016 9.76239 3.7152
20.0946 9.76248 3.68445
19.8909 9.76255 3.65428
19.6905 9.76263 3.62465
19.4934 9.76271 3.59555
19.2994 9.76278 3.56698
19.1084 9.76285 3.53891
18.9204 9.76293 3.51133
18.7354 9.763 3.48425
18.5531 9.76307 3.45763
18.3737 9.76314 3.43146
18.1969 9.76321 3.40575
18.0227 9.76327 3.38047
17.8511 9.76334 3.35562
17.682 9.7634 3.33119
17.5154 9.76347 3.30716
17.3511 9.76353 3.28352
17.1892 9.76359 3.26028
17.0295 9.76365 3.23742
16.871 9.76311 3.21472
16.0767 9.38993 3.07054
15.9294 9.38998 3.04959
15.867 9.43935 3.04488
15.8934 9.54174 3.05728
15.9201 9.64507 3.06985
15.9473 9.74938 3.08262
15.9748 9.85465 3.09558
16.0028 9.96094 3.10873
16.0312 10.0683 3.12209
16.06 10.1766 3.13564
16.0893 10.286 3.1494
16.1189 10.3965 3.16337
16.1491 10.5081 3.17755
16.1797 10.6209 3.19195
16.2108 10.7348 3.20657
16.2424 10.8499 3.22142
16.2744 10.9661 3.23649
16.3069 11.0836 3.2518
16.34 11.2024 3.26734
16.3736 11.3224 3.28312
16.4076 11.4438 3.29916
16.4423 11.5664 3.31544
16.4774 11.6905 3.33198
16.5131 11.8159 3.34878
16.5494 11.9427 3.36585
16.5863 12.071 3.38319
16.6237 12.2008 3.4008
16.6618 12.3321 3.4187
16.7005 12.4649 3.43689
16.7397 12.5994 3.45537
16.7797 12.7354 3.47415
16.8203 12.8731 3.49324
16.8615 13.0125 3.51264
16.9034 13.1536 3.53236
16.946 13.2965 3.55241
16.9894 13.4412 3.57279
17.0334 13.5877 3.59351
17.0782 13.7361 3.61458
17.1238 13.8865 3.636
17.1701 14.0388 3.65779
17.2172 14.1932 3.67996
17.2651 14.3497 3.7025
17.3139 14.5083 3.72543
17.3634 14.6691 3.74876
17.4139 14.8321 3.77249
17.4653 14.9974 3.79665
17.5175 15.165 3.82123
17.5707 15.3351 3.84625
17.6248 15.5076 3.87171
17.6799 15.6826 3.89763
17.736 15.8602 3.92402
17.7931 16.0405 3.9509
17.8513 16.2235 3.97826
17.9106 16.4093 4.00614
17.9709 16.5979 4.03453
18.0324 16.7896 4.06345
18.095 16.9841 4.09291
18.1589 17.1819 4.12294
18.2239 17.3828 4.15354
18.2902 17.587 4.18473
18.3578 17.7946 4.21653
18.4267 18.0056 4.24894
18.497 18.2202 4.282
18.5686 18.4385 4.31572
18.6417 18.6605 4.35011
18.7163 18.8864 4.38519
18.7924 19.1163 4.42099
18.8701 19.3502 4.45752
18.9493 19.5884 4.49481
20.2358 21.0873 4.82004
20.0732 21.0869 4.80147
19.9119 21.0866 4.78312
19.7518 21.0862 4.76499
19.593 21.0858 4.74706
19.4353 21.0854 4.72936
19.2787 21.0851 4.71185
19.1234 21.0847 4.69456
18.9691 21.0844 4.67746
18.8349 21.1052 4.66525
18.7794 21.2141 4.67258
18.7555 21.3594 4.68796
18.7314 21.5058 4.70351
18.7071 21.6531 4.71925
18.6827 21.8014 4.73516
18.6582 21.9507 4.75127
18.6335 22.1011 4.76756
18.6086 22.2525 4.78405
18.5992 22.4238 4.80475
18.5993 22.6082 4.82822
18.5993 22.7944 4.85198
18.5994 22.9825 4.87606
18.5995 23.1725 4.90047
18.5995 23.3644 4.92519
18.5996 23.5582 4.95025
18.6271 23.7891 4.98298
18.7029 24.0847 5.02912
18.8022 24.4145 5.08216
21.5826 28.2591 5.86436
6.74336 19.1435 3.34734
-20.5634 93.6829 15.8183
-20.7035 92.5429 15.6397
-21.2286 91.4337 15.4806
-21.4974 90.9307 15.4099
-21.7044 90.1853 15.2983
-22.6602 92.5206 15.7097
-23.0722 92.5902 15.7372
-23.4161 92.3859 15.7183
-23.7374 92.097 15.6853
-23.5979 90.0563 15.3538
-24.0516 90.3061 15.4127
-22.0463 73.2228 12.6116
-20.5832 67.3812 11.6196
-20.8981 67.4404 11.6442
-21.2145 67.5005 11.6692
-21.4846 67.4113 11.6686
-21.751 67.3108 11.6663
-22.4309 68.4729 11.8832
-22.8369 68.7764 11.9517
-23.1695 68.8513 11.9808
-23.4996 68.9146 12.0082
-23.3847 67.6857 11.8104
-23.7597 67.8855 11.8618
-24.1335 68.0746 11.9117
-24.4429 68.0773 11.9293
-25.0727 68.9584 12.1012
-34.0642 92.5283 16.2613
-34.3397 92.1326 16.2159
-34.0902 90.3516 15.9264
-20.2049 52.9054 9.33995
-20.4222 52.8364 9.34219
-20.6399 52.7677 9.34463
-20.8578 52.6993 9.34729
-21.0723 52.6222 9.34857
-21.2853 52.5411 9.34928
-21.4984 52.4602 9.35019
-21.7117 52.3794 9.35128
-21.8972 52.2324 9.34067
-22.0796 52.0793 9.32908
-22.2572 51.9167 9.3159
-22.4297 51.7435 9.30093
-22.6017 51.5712 9.28623
-22.7733 51.3999 9.27178
-22.6048 50.4705 9.12046
-22.7388 50.2276 9.093
-22.8503 49.9386 9.05724
-22.9196 49.5624 9.00565
-22.9606 49.1316 8.94408
-23.1792 49.0841 8.95232
-23.4249 49.0923 8.97091
-23.6717 49.1007 8.98977
-23.9121 49.0937 9.00602
-24.1338 49.0473 9.01522
-24.1641 48.6146 8.95346
-24.1216 48.0434 8.86606
-23.9058 47.14 8.71701
-24.0796 47.0134 8.71142
-24.2378 46.8569 8.70042
-24.3863 46.6832 8.6863
-24.0568 45.6048 8.50356
-24.2906 45.6029 8.52135
-24.5214 45.5935 8.53794
-24.741 45.5618 8.55056
-24.9613 45.5302 8.56339
-25.1825 45.4986 8.57643
-25.4044 45.4672 8.58968
-25.6271 45.4359 8.60315
-26.3808 46.3358 8.79357
-34.6749 60.3384 11.4773
-34.7987 59.9942 11.4384
-34.8965 59.6095 11.3917
-34.9986 59.2364 11.3472
-34.5979 58.0245 11.1416
-35.6475 59.2419 11.4028
-25.2565 41.5939 8.02539
-25.3883 41.4346 8.01427
-25.5199 41.2759 8.00337
-25.6513 41.1181 7.99269
-25.7826 40.9609 7.98222
-25.9138 40.8045 7.97198
-26.0448 40.6488 7.96194
-26.1756 40.4938 7.95212
-26.3015 40.3319 7.94103
-26.4252 40.1677 7.92956
-26.5488 40.0045 7.91835
-26.61 39.749 7.88888
-26.671 39.4957 7.85982
-26.7318 39.2447 7.8312
-26.7926 38.9961 7.80301
-26.8533 38.7497 7.77526
-26.9139 38.5057 7.74794
-26.9745 38.2638 7.72103
-27.035 38.0242 7.69453
-27.0302 37.6956 7.64998
-26.8109 37.0741 7.54565
-30.0072 41.1446 8.3986
-29.033 39.4746 8.08146
-29.2948 39.4969 8.11008
-28.0797 37.5422 7.73184
-28.6569 37.9946 7.84866
-29.2247 38.4251 7.96181
-29.7028 38.7296 8.04957
-30.1331 38.9653 8.12367
-30.4276 39.021 8.16072
-30.9904 39.415 8.2691
-31.1959 39.3497 8.28165
-31.4022 39.2844 8.29442
-31.6092 39.2192 8.3074
-37.109 45.6661 9.70449
-37.1044 45.2872 9.6556
-37.0867 44.8962 9.60396
-37.0698 44.5101 9.55317
-38.7485 45.7724 9.89062
-38.7822 45.4404 9.8525
-38.8157 45.1112 9.81487
-37.1125 42.7826 9.34064
-37.1371 42.465 9.3038
-33.7547 38.2856 8.41778
-37.1873 41.8387 9.2318
-37.1369 41.4453 9.17785
-39.1154 43.3018 9.62371
-39.3146 43.1721 9.62993
-39.5032 43.0304 9.63368
-39.6813 42.8772 9.63501
-39.8596 42.7241 9.63653
-40.0382 42.5711 9.63825
-40.217 42.4182 9.64016
-40.3959 42.2654 9.64225
-36.1134 37.4818 8.584
-36.126 37.1945 8.55139
-36.1389 36.9098 8.51925
-19.5903 19.8479 4.5993
-19.6433 19.7423 4.59308
-19.6965 19.6372 4.58703
-19.6587 19.4426 4.55998
-19.3951 19.0283 4.48106
-36.7921 35.807 8.46712
-36.8376 35.5641 8.44463
-24.3864 23.3546 5.56875
-24.3222 23.1064 5.53284
-24.259 22.8616 5.49753
-24.0696 22.5011 5.43405
-24.2696 22.5059 5.45872
-24.2635 22.3196 5.43715
-24.3099 22.1824 5.42751
-24.3561 22.0459 5.41801
-24.4023 21.9099 5.40865
-24.4485 21.7744 5.39943
-24.166 21.3493 5.31806
-24.2859 21.282 5.32557
-24.4062 21.2146 5.3332
-24.527 21.147 5.34097
-24.6445 21.0763 5.34808
-20.4262 17.3271 4.41752
-20.4528 17.2086 4.40826
-20.4373 17.0558 4.39012
-20.361 16.8538 4.35914
-20.286 16.6547 4.32872
-20.2123 16.4586 4.29883
-20.0882 16.2236 4.25852
-19.8792 15.9233 4.20061
-20.6279 16.3873 4.34486
-20.6324 16.256 4.33201
-20.637 16.1256 4.31933
-20.6416 15.996 4.30682
-20.4472 15.7142 4.25304
-20.5021 15.6257 4.25135
-20.557 15.5373 4.24976
-20.612 15.449 4.24825
-20.6661 15.3602 4.24663
-20.6712 15.2354 4.23506
-20.6763 15.1113 4.22364
-20.8324 15.0973 4.24308
-20.8876 15.0096 4.24201
-20.9429 14.922 4.24102
-20.9983 14.8346 4.24012
-19.9518 13.9754 4.01744
-20.4638 14.2117 4.10899
-20.5782 14.1689 4.1205
-20.6935 14.126 4.13217
-20.8096 14.0829 4.14402
-20.9188 14.0346 4.1545
-21.0058 13.9709 4.16059
-21.0933 13.907 4.16681
-21.1811 13.8431 4.17313
-21.2694 13.7791 4.17957
-21.358 13.715 4.18613
-21.5285 13.7025 4.20871
-21.5421 13.5898 4.20066
-21.5227 13.4569 4.18629
-21.5036 13.325 4.17213
-21.4848 13.1942 4.15816
-21.4663 13.0642 4.14437
-21.4481 12.9353 4.13078
-21.4301 12.8072 4.11736
-21.4123 12.6801 4.10413
-21.3949 12.5539 4.09108
-21.3548 12.4152 4.07384
-21.3019 12.2701 4.0543
-21.2497 12.1265 4.03505
-21.1366 11.9496 4.00442
-21.0157 11.7701 3.97253
-20.897 11.5934 3.94124
-20.7803 11.4197 3.91055
-20.6657 11.2488 3.88043
-41.1856 22.2041 7.71668
-41.0289 21.9072 7.67075
-40.8465 21.5993 7.62037
-40.6673 21.2957 7.5709
-40.491 20.9964 7.5223
-41.9126 21.0962 7.73857
-22.6071 11.2653 4.16569
-22.3792 11.0397 4.11549
-22.3834 10.9301 4.10814
-22.4094 10.8315 4.1049
-22.5199 10.7734 4.11717
-22.631 10.715 4.12957
-42.2517 19.7971 7.69526
-42.2877 19.6071 7.68739
-42.3239 19.4175 7.67972
-42.2092 19.1599 7.64487
-41.8727 18.8045 7.57017
-42.1589 18.7297 7.60824
-42.4406 18.6509 7.64547
-42.4534 18.4533 7.63436
-42.4665 18.2564 7.62345
-42.4798 18.0601 7.61275
-42.4934 17.8645 7.60225
-42.5072 17.6696 7.59195
-36.4704 14.9885 6.50294
-36.2318 14.7205 6.44979
-42.5194 17.0763 7.55681
-42.4105 16.8349 7.52536
-33.913 13.3042 6.00802
-33.6693 13.0527 5.9555
-33.4301 12.8056 5.90404
-32.4134 12.267 5.71572
-29.5804 11.0591 5.20827
-29.8988 11.0413 5.25648
-30.225 11.0239 5.306
-30.5079 10.9884 5.34786
-30.6268 10.8923 5.36098
-30.7469 10.796 5.37436
-30.7987 10.6753 5.37587
-30.8053 10.5391 5.36959
-30.6638 10.3531 5.33763
-30.6614 10.2152 5.33002
-30.6594 10.0778 5.32258
-30.6577 9.94085 5.31531
-30.6564 9.80443 5.30821
-30.6554 9.66844 5.30127
-30.6548 9.53292 5.29449
-30.6546 9.39788 5.28788
-30.6547 9.26327 5.28143
-30.6551 9.12906 5.27514
-30.6559 8.99529 5.26901
-30.657 8.86194 5.26304
-30.6585 8.72897 5.25723
-30.6603 8.5964 5.25157
-30.6625 8.46421 5.24607
-30.665 8.33237 5.24073
-30.6678 8.20092 5.23554
-30.671 8.06981 5.2305
-30.6746 7.939 5.22562
-30.6784 7.80857 5.22089
-30.6124 7.66085 5.20437
-30.4904 7.5002 5.17846
-30.3701 7.34125 5.15298
-30.2515 7.18401 5.12792
-30.1346 7.02838 5.10326
-30.0192 6.87438 5.07901
-29.9055 6.72192 5.05515
-29.7933 6.57097 5.03167
-30.099 6.13262 5.066
-30.0631 5.99956 5.05586
-30.1446 5.8899 5.06553
-48.198 9.21634 8.09296
-48.1375 9.00434 8.07666
-48.054 8.78895 8.05666
-47.8809 8.55852 8.0218
-47.7097 8.33015 7.98744
-47.5402 8.10374 7.95355
-47.3726 7.87934 7.92014
-47.2067 7.65688 7.8872
-47.0425 7.43627 7.85472
-46.8801 7.21754 7.82268
-46.7193 7.00067 7.7911
-47.707 6.95268 7.95107
-47.2836 6.69699 7.87596
-46.7115 6.4245 7.77631
-46.0632 6.14676 7.6642
-46.1024 5.96348 7.66667
-46.1231 5.77774 7.66619
-46.1126 5.58822 7.66066
-46.1024 5.39904 7.65529
-20.6924 2.339 3.43438
-20.634 2.24842 3.42316
-20.5761 2.15844 3.41208
-20.5693 2.07418 3.40955
-20.6103 1.99465 3.41499
-20.6515 1.91488 3.42051
-20.8937 1.85266 3.45937
-45.941 3.88751 7.60379
-46.2566 3.72702 7.65349
-46.364 3.54816 7.66885
-46.4721 3.36857 7.68442
-46.5808 3.18825 7.70021
-46.6902 3.00723 7.71623
-46.8002 2.82545 7.73247
-31.5722 1.77874 5.21523
-31.3915 1.64199 5.18424
-31.362 1.51405 5.17832
-31.3382 1.38666 5.17344
-31.4684 1.2657 5.19405
-45.939 0.369351 7.57663
-35.8709 0.144204 5.91597
-35.3722 -0.142202 5.43181
-37.4122 -1.65543 5.75065
-37.3185 -1.80162 5.73731
-37.2254 -1.94717 5.72416
-37.133 -2.09203 5.7112
-37.0413 -2.23628 5.69843
-31.7369 -2.04412 4.88362
-31.9339 -2.18574 4.91526
-32.134 -2.32926 4.94746
-32.2422 -2.46745 4.9656
-32.2869 -2.60144 4.97405
-32.332 -2.73594 4.98265
-32.3776 -2.87093 4.99141
-32.4237 -3.00645 5.00035
-32.4703 -3.14245 5.00944
-31.7648 -3.20313 4.90255
-30.2565 -3.17395 4.67169
-30.1407 -3.28434 4.6558
-30.0258 -3.39402 4.64013
-29.912 -3.50297 4.62468
-29.7991 -3.61127 4.60944
-29.6872 -3.71886 4.59441
-29.5763 -3.82579 4.57959
-29.4664 -3.93207 4.56497
-29.3573 -4.0377 4.55055
-29.2263 -4.13947 4.53279
-29.1076 -4.24207 4.51698
-29.0518 -4.35328 4.51102
-28.9605 -4.45869 4.49958
-28.8698 -4.56363 4.4883
-28.7779 -4.66776 4.4769
-28.6795 -4.77016 4.46453
-28.5818 -4.87209 4.45234
-28.485 -4.97352 4.44034
-28.389 -5.07444 4.42853
-28.2939 -5.17489 4.41689
-28.1996 -5.27488 4.40544
-28.106 -5.37441 4.39417
-28.0133 -5.47349 4.38307
-27.8817 -5.56423 4.36594
-27.6082 -5.62515 4.32663
-27.3401 -5.6851 4.28816
-27.0773 -5.74409 4.25052
-28.6407 -6.19616 4.49981
-28.9925 -6.3944 4.5591
-29.2915 -6.58393 4.61024
-29.4322 -6.73994 4.6366
-29.5301 -6.88741 4.65635
-29.765 -7.06852 4.69784
-29.9098 -7.23003 4.72524
-30.0566 -7.39353 4.75309
-48.0379 -12.0217 7.60419
-47.6542 -12.1294 7.55111
-47.2762 -12.2358 7.49894
-46.9022 -12.3404 7.44745
-46.537 -12.4445 7.39734
-46.1756 -12.547 7.34784
-46.1678 -12.7444 7.3547
-46.3085 -12.9838 7.38537
-38.2487 -10.89 6.1069
-30.1745 -8.72246 4.82331
-46.004 -13.4989 7.36223
-45.8779 -13.6624 7.35078
-45.7524 -13.8255 7.33953
-45.6277 -13.9883 7.32848
-45.5037 -14.1506 7.31765
-36.5254 -11.6814 5.8887
-36.1249 -11.7136 5.83168
-34.4744 -11.3318 5.57256
-34.5503 -11.5108 5.59225
-34.6269 -11.6912 5.61221
-34.7043 -11.873 5.63245
-34.7824 -12.0561 5.65295
-34.8525 -12.2376 5.6723
-34.8606 -12.398 5.68168
-34.8689 -12.5591 5.69121
-34.8774 -12.7208 5.7009
-34.8806 -12.881 5.70983
-34.8768 -13.0392 5.71774
-34.8731 -13.1979 5.72579
-34.8696 -13.357 5.73399
-34.8662 -13.5167 5.74233
-2.45413 -0.962769 0.404808
-2.44007 -0.968589 0.403137
-2.42613 -0.974363 0.401481
-2.41946 -0.982996 0.401026
-2.41544 -0.992695 0.401019
-2.41143 -1.0024 0.401019
-2.40741 -1.0121 0.401024
-2.40691 -1.02329 0.401622
-2.41269 -1.03722 0.40328
-2.41853 -1.05127 0.404958
-34.15 -15.0076 5.72813
-34.0555 -15.1297 5.72243
-33.9585 -15.2503 5.71639
-33.8619 -15.3708 5.71048
-33.7657 -15.4912 5.70472
-33.67 -15.6114 5.6991
-33.5747 -15.7315 5.69362
-33.4275 -15.8268 5.67942
-33.2605 -15.9117 5.66186
-33.0947 -15.9962 5.64454
-32.9303 -16.0803 5.62747
-32.7669 -16.164 5.61062
-37.3 -18.587 6.39956
-23.752 -13.5545 4.19948
-23.7008 -13.6519 4.2001
-23.65 -13.7496 4.20085
-23.5994 -13.8474 4.20173
-23.5492 -13.9455 4.20273
-22.8096 -14.6471 4.16264
-22.6115 -14.6486 4.1372
-22.4162 -14.6504 4.11221
-22.2238 -14.6524 4.08768
-22.034 -14.6547 4.06357
-21.847 -14.6573 4.03991
-21.6624 -14.6601 4.01665
-21.4804 -14.6632 3.9938
-21.0977 -14.5266 3.93347
-25.0476 -17.3951 4.68289
-24.9123 -17.45 4.67068
-24.7779 -17.5048 4.65863
-24.6444 -17.5594 4.64675
-24.5112 -17.6135 4.63497
-24.3675 -17.6592 4.62119
-24.225 -17.7049 4.60761
-20.95 -15.4409 3.99648
-20.8195 -15.4743 3.98342
-20.6901 -15.5076 3.97055
-20.5428 -15.5265 3.95422
-20.3799 -15.5325 3.93486
-20.2187 -15.5386 3.91576
-20.0592 -15.5447 3.89696
-19.9015 -15.5509 3.87842
-19.7454 -15.5571 3.86015
-19.5909 -15.5635 3.84215
-19.438 -15.5699 3.82441
-19.2866 -15.5763 3.80692
-20.4908 -16.6854 4.05782
-20.4408 -16.7818 4.06124
-20.4451 -16.9233 4.07558
-22.6264 -18.8827 4.52549
-22.7064 -19.1049 4.55683
-22.7118 -19.2659 4.57341
-22.71 -19.4218 4.58873
-22.7084 -19.5791 4.60427
-22.707 -19.7376 4.62006
-2.53924 -2.22517 0.518459
-2.53773 -2.24193 0.519985
-2.53619 -2.25879 0.521527
-2.53464 -2.27575 0.523085
-2.53082 -2.29076 0.524191
-2.51047 -2.29077 0.521881
-2.4903 -2.29078 0.519598
-2.4703 -2.29079 0.517343
-2.33409 -2.18199 0.490648
-2.31536 -2.18199 0.488554
-2.2968 -2.182 0.486484
-2.27839 -2.182 0.484438
-2.26693 -2.18856 0.483865
-2.26694 -2.20624 0.485757
-2.26695 -2.22406 0.487673
-2.31631 -2.29085 0.500269
-2.29777 -2.29085 0.498249
-2.27938 -2.29086 0.496254
-2.26113 -2.29087 0.494282
-2.24303 -2.29088 0.492334
-2.22507 -2.29088 0.490409
-2.20725 -2.29089 0.488508
-2.18957 -2.2909 0.486628
-2.17202 -2.2909 0.484772
-2.1546 -2.29091 0.482936
-2.13732 -2.29092 0.481122
-2.12016 -2.29092 0.47933
-2.10314 -2.29093 0.477558
-2.02208 -2.22048 0.461175
-2.01987 -2.23605 0.462719
-2.02108 -2.25555 0.465068
-2.0223 -2.27525 0.467449
-2.02354 -2.29516 0.469865
-14.0051 -22.4496 4.06319
-13.8775 -22.4455 4.05231
-13.7507 -22.4416 4.0416
-13.6247 -22.438 4.03105
-13.4877 -22.415 4.01716
-13.3384 -22.3699 3.99943
-13.1906 -22.3256 3.982
-13.0444 -22.2821 3.96486
-12.8996 -22.2393 3.94798
-12.7562 -22.1973 3.93139
-12.6143 -22.1561 3.91508
-13.4755 -23.8916 4.21214
-13.3156 -23.8314 4.19206
-13.1572 -23.7718 4.17225
-13.0003 -23.713 4.1527
-12.845 -23.6547 4.13343
-12.9901 -24.153 4.21133
-12.8925 -24.2041 4.21118
-12.2856 -23.2901 4.04352
-12.2156 -23.3846 4.05137
-12.1413 -23.4718 4.05799
-12.0622 -23.5504 4.06316
-11.9756 -23.6147 4.06593
-11.8889 -23.6794 4.0688
-11.8022 -23.7442 4.07176
-9.80802 -19.9329 3.41138
-9.67791 -19.8697 3.39388
-11.5418 -23.9404 4.08123
-11.4549 -24.0064 4.08459
-11.3679 -24.0726 4.08805
-11.2808 -24.139 4.0916
-11.1937 -24.2058 4.09525
-11.1065 -24.2728 4.09901
-11.0192 -24.3401 4.10286
-10.9318 -24.4078 4.10682
-9.98791 -27.1301 4.43946
-9.97357 -27.4307 4.48206
-9.95918 -27.7379 4.52567
-7.83973 -23.2969 3.7746
-7.5341 -22.69 3.67133
-7.43146 -22.6853 3.66572
-7.32914 -22.6808 3.6602
-7.22523 -22.6703 3.65379
-7.12053 -22.6562 3.64687
-7.01627 -22.6423 3.64006
-6.91243 -22.6285 3.63335
-6.80902 -22.615 3.62675
-6.70602 -22.6016 3.62026
-6.60343 -22.5884 3.61386
-6.50125 -22.5755 3.60758
-6.39946 -22.5627 3.6014
-6.29805 -22.55 3.59531
-6.19701 -22.5376 3.58933
-6.09636 -22.5254 3.58344
-5.99605 -22.5133 3.57766
-5.11277 -22.0213 3.47154
-5.05286 -22.1673 3.49133
-4.98596 -22.287 3.50699
-4.91852 -22.4079 3.52288
-4.84466 -22.5031 3.53475
-4.7592 -22.5462 3.53849
-4.67362 -22.5897 3.54235
-4.58791 -22.6337 3.54632
-4.50207 -22.6781 3.55042
-4.4161 -22.7229 3.55463
-4.32999 -22.7682 3.55896
-4.24372 -22.8139 3.56341
-4.1573 -22.86 3.56797
-4.07071 -22.9066 3.57265
-3.98395 -22.9536 3.57746
-3.89292 -22.977 3.57864
-3.79951 -22.9863 3.57768
-3.70623 -22.9962 3.57687
-3.6131 -23.0068 3.57622
-3.52011 -23.018 3.57574
-3.42725 -23.0299 3.57542
-3.33447 -23.0423 3.57524
-3.23616 -23.0153 3.56901
-3.13123 -22.9374 3.55494
-3.02718 -22.8605 3.54112
-2.92398 -22.7846 3.52751
-2.8216 -22.7096 3.51411
-2.72005 -22.6356 3.50093
-2.61929 -22.5624 3.48796
-2.51932 -22.4902 3.4752
-2.42011 -22.4188 3.46264
6.75551 -14.6859 2.48232
16.2516 -34.9586 5.91998
16.3451 -34.7933 5.90306
16.4382 -34.629 5.88636
16.4794 -34.3585 5.85159
16.6494 -34.3582 5.86288
16.8944 -34.5096 5.90026
17.1778 -34.7341 5.95041
17.2101 -34.4501 5.91356
17.3926 -34.4683 5.92863
17.5357 -34.4073 5.93022
16.658 -20.4153 4.04648
22.0071 9.40854 3.6753
21.9978 9.50931 3.6801
21.9883 9.61031 3.68494
21.9787 9.71154 3.68985
21.8544 9.7618 3.67554
21.6208 9.76189 3.64282
21.3913 9.76198 3.61073
21.1658 9.76206 3.57927
20.9442 9.76215 3.5484
20.7263 9.76223 3.51811
20.5122 9.76231 3.4884
20.3016 9.76239 3.45924
20.0946 9.76248 3.43061
19.8909 9.76255 3.40251
19.6905 9.76263 3.37493
19.4934 9.76271 3.34784
19.2994 9.76278 3.32123
19.1084 9.76285 3.2951
18.9205 9.76293 3.26942
18.7354 9.763 3.2442
18.5531 9.76307 3.21941
18.3737 9.76314 3.19505
18.1969 9.76321 3.17111
18.0227 9.76327 3.14757
17.8511 9.76334 3.12443
17.682 9.7634 3.10168
17.5154 9.76347 3.07931
17.3511 9.76353 3.0573
17.1892 9.76359 3.03566
17.0295 9.76365 3.01437
16.871 9.76311 2.99324
16.7138 9.76205 2.97229
16.5588 9.76101 2.95169
16.406 9.75998 2.93141
16.3367 9.80791 2.92605
16.3368 9.8975 2.93316
16.3368 9.98751 2.94035
15.6319 9.64309 2.82043
15.6325 9.73045 2.82758
15.6331 9.81826 2.83482
15.6338 9.90654 2.84213
15.6345 9.99527 2.84953
15.6351 10.0845 2.85702
15.6358 10.1741 2.86459
15.6365 10.2643 2.87226
15.6372 10.3549 2.88
15.6379 10.446 2.88784
15.6386 10.5377 2.89577
15.6393 10.6298 2.90379
15.64 10.7225 2.91191
15.6407 10.8157 2.92011
15.6415 10.9094 2.92841
15.6422 11.0036 2.93681
15.6651 11.1141 2.94948
15.6951 11.2306 2.96361
15.7257 11.3483 2.97796
15.7567 11.4673 2.99254
15.7881 11.5875 3.00733
15.8201 11.7091 3.02236
15.8525 11.8321 3.03763
15.8855 11.9564 3.05312
15.919 12.0821 3.06887
15.9529 12.2093 3.08486
15.9875 12.338 3.1011
16.0226 12.4682 3.11761
16.0582 12.5999 3.13437
16.0944 12.7331 3.15141
16.1313 12.868 3.16872
16.1687 13.0046 3.18631
16.2067 13.1428 3.20418
16.2453 13.2827 3.22235
16.2845 13.4244 3.24082
16.3244 13.5679 3.25958
16.365 13.7132 3.27866
16.4063 13.8604 3.29807
16.4482 14.0095 3.31779
16.4908 14.1606 3.33785
16.5342 14.3138 3.35824
16.5783 14.4689 3.37899
16.6232 14.6262 3.40009
16.6688 14.7857 3.42155
16.7152 14.9474 3.44339
16.7624 15.1113 3.4656
16.8105 15.2776 3.48821
16.8594 15.4462 3.51122
16.9092 15.6173 3.53462
16.9598 15.7909 3.55845
17.0114 15.9671 3.58271
17.0639 16.1459 3.60741
17.1174 16.3274 3.63256
17.1718 16.5116 3.65818
17.2273 16.6987 3.68425
17.2838 16.8888 3.71083
17.3413 17.0818 3.73789
17.3999 17.278 3.76547
17.4597 17.4773 3.79358
17.5206 17.6798 3.82222
17.5826 17.8856 3.85141
17.6459 18.0949 3.88117
17.7104 18.3077 3.91151
17.7762 18.5242 3.94246
17.8433 18.7443 3.97402
17.9117 18.9683 4.00621
17.9815 19.1963 4.03905
18.0528 19.4283 4.07256
18.1254 19.6644 4.10676
19.2784 21.0848 4.38717
19.1231 21.0844 4.37106
18.9688 21.0841 4.35514
18.8347 21.105 4.34379
18.7793 21.214 4.35066
18.7554 21.3594 4.36497
18.7313 21.5057 4.37945
18.7071 21.653 4.3941
18.6827 21.8013 4.40892
18.6581 21.9506 4.42391
18.6334 22.101 4.43908
18.6085 22.2524 4.45443
18.5992 22.4238 4.47373
18.5993 22.6082 4.49557
18.5993 22.7944 4.5177
18.5994 22.9825 4.54012
18.5995 23.1725 4.56284
18.5995 23.3644 4.58586
18.5996 23.5582 4.6092
18.6275 23.7895 4.63977
18.7032 24.0851 4.68271
18.804 24.4168 4.73248
21.5826 28.2591 5.46033
6.74309 19.1427 3.11661
-1.31974 37.504 5.76269
-21.4886 94.2723 14.8478
-21.3354 91.8936 14.4865
-21.6849 91.7238 14.4734
-22.0303 91.5397 14.4582
-22.3727 91.3465 14.4418
-22.7145 91.1545 14.4258
-23.1226 91.2277 14.4519
-23.5062 91.2003 14.4624
-23.8906 91.1735 14.4733
-24.2722 91.1342 14.4824
-24.6521 91.0869 14.4905
-25.5046 92.7565 14.7724
-22.2211 73.8033 11.8358
-21.1372 69.1946 11.1102
-21.3051 68.7538 11.0531
-21.4612 68.2855 10.9916
-21.7346 68.1958 10.9912
-21.9469 67.9169 10.9603
-22.1581 67.6401 10.93
-22.3684 67.3654 10.9
-22.6643 67.35 10.9122
-23.0588 67.6219 10.9712
-23.452 67.8804 11.0283
-23.8444 68.1275 11.0839
-20.4755 57.0276 9.30453
-20.4743 56.3113 9.201
-33.891 92.0577 15.0639
-19.4261 52.1198 8.54138
-19.6302 52.0273 8.53909
-19.8248 51.9104 8.53291
-20.0193 51.7939 8.52692
-20.2137 51.678 8.52114
-20.4079 51.5626 8.51558
-20.5118 51.2226 8.47297
-20.7243 51.1561 8.47569
-20.9369 51.09 8.47861
-21.1223 50.9577 8.47068
-21.2921 50.7891 8.45682
-21.4615 50.6214 8.44318
-21.5455 50.2563 8.39667
-21.6742 50.0006 8.36844
-21.5001 49.0575 8.225
-22.16 50.0155 8.40047
-22.3509 49.9037 8.39672
-22.5378 49.7836 8.3917
-22.603 49.3981 8.34197
-22.6679 49.0182 8.29314
-23.0968 49.4232 8.37731
-23.25 49.2339 8.36099
-23.381 49.0004 8.33722
-23.531 48.8088 8.32066
-23.4422 48.1291 8.22077
-23.4086 47.5733 8.14186
-23.2446 46.7646 8.01936
-23.3834 46.5733 8.00262
-23.5447 46.4281 7.99387
-23.7057 46.2834 7.9853
-23.8665 46.1392 7.97692
-24.0205 45.983 7.96655
-24.1296 45.7427 7.94165
-24.3106 45.6405 7.9408
-24.611 45.7601 7.97876
-24.7535 45.5848 7.96549
-25.013 45.6244 7.98991
-25.2606 45.6398 8.01033
-24.4756 43.8049 7.70549
-24.6682 43.7358 7.7107
-24.8613 43.6669 7.71613
-25.0549 43.5985 7.72178
-25.1947 43.4367 7.71098
-25.3139 43.2408 7.69422
-34.8947 59.0605 10.534
-23.7697 39.8643 7.12718
-23.9586 39.8163 7.13577
-24.1093 39.7046 7.13305
-24.2297 39.5438 7.1216
-24.35 39.3838 7.11037
-31.1603 49.9488 9.04031
-31.2186 49.5971 8.99931
-31.0768 48.9343 8.90164
-31.0641 48.4826 8.8421
-28.1322 43.5206 7.95771
-27.5898 42.3075 7.75611
-27.7987 42.2555 7.76702
-27.8698 41.995 7.73965
-25.1583 37.5804 6.94463
-27.9933 41.4538 7.68115
-27.7896 40.7977 7.5802
-27.78 40.4331 7.53317
-28.0019 40.4072 7.54924
-28.2251 40.3815 7.56558
-28.4494 40.3559 7.58216
-28.6612 40.3113 7.59536
-28.8673 40.2576 7.60703
-29.0743 40.2039 7.61893
-29.2724 40.1372 7.62851
-29.4642 40.0608 7.63644
-29.6565 39.9846 7.64458
-29.8494 39.9084 7.65289
-29.3981 38.9773 7.49694
-29.5957 38.9129 7.50738
-29.7915 38.8452 7.51736
-29.9846 38.7733 7.52672
-30.1785 38.7014 7.53626
-30.3729 38.6296 7.54599
-30.5681 38.5578 7.5559
-30.7639 38.486 7.566
-29.5221 36.6296 7.22432
-31.1577 38.3424 7.58678
-31.3557 38.2707 7.59747
-31.5544 38.1989 7.60834
-31.7538 38.1272 7.61942
-31.9541 38.0555 7.63069
-32.1254 37.9487 7.63512
-32.2759 37.8171 7.63469
-32.4265 37.6857 7.63441
-32.5772 37.5545 7.6343
-32.7282 37.4235 7.63435
-32.8793 37.2927 7.63457
-23.3442 26.2642 5.39598
-23.4441 26.164 5.39471
-23.5442 26.0641 5.39359
-23.6447 25.9647 5.39264
-23.7454 25.8656 5.39186
-23.8464 25.7669 5.39122
-23.9245 25.6438 5.38553
-23.8589 25.3683 5.34777
-23.7952 25.0977 5.31085
-23.7333 24.8316 5.2747
-17.9012 18.5795 3.96189
-18.0045 18.537 3.96823
-18.1082 18.4945 3.97467
-18.2124 18.452 3.98124
-18.3171 18.4094 3.9879
-18.4222 18.3667 3.99467
-18.5277 18.324 4.00155
-18.6337 18.2813 4.00854
-18.7402 18.2385 4.01565
-18.8472 18.1956 4.02286
-18.9444 18.1429 4.028
-19.0255 18.0745 4.02977
-19.1068 18.0062 4.03163
-19.1884 17.938 4.0336
-19.2701 17.8698 4.03564
-19.3455 17.7956 4.03642
-19.4131 17.7142 4.03563
-19.4807 17.6329 4.03492
-19.5484 17.5518 4.0343
-19.6162 17.4707 4.03376
-19.6841 17.3898 4.03332
-19.7521 17.309 4.03296
-19.8202 17.2282 4.03268
-19.8883 17.1476 4.03249
-19.7044 16.8515 3.98144
-19.5826 16.6114 3.94329
-20.0571 16.8758 4.02516
-20.084 16.7609 4.01698
-20.1107 16.6466 4.00892
-20.1375 16.5327 4.00097
-20.1642 16.4194 3.99314
-20.1909 16.3066 3.98541
-20.1975 16.1782 3.97384
-20.2031 16.0498 3.96222
-20.2087 15.9222 3.95074
-20.2145 15.7954 3.93941
-20.2202 15.6694 3.92823
-20.2261 15.5442 3.91719
-20.2319 15.4198 3.90629
-24.5303 18.5404 4.72178
-24.6212 18.4539 4.72494
-24.7143 18.3691 4.7286
-24.9198 18.3668 4.75378
-20.4174 14.9221 3.8834
-20.4717 14.8359 3.88236
-20.5261 14.7498 3.88139
-20.5805 14.6638 3.8805
-20.635 14.5779 3.87969
-20.6895 14.4921 3.87895
-20.7441 14.4064 3.8783
-20.7987 14.3207 3.87773
-20.8416 14.2271 3.87503
-20.8794 14.1302 3.87145
-20.9171 14.0334 3.86796
-20.9549 13.937 3.86455
-20.9927 13.8407 3.86122
-20.9814 13.7126 3.84899
-20.9637 13.5811 3.83569
-20.9462 13.4505 3.82257
-20.929 13.321 3.80963
-20.9121 13.1924 3.79687
-20.8633 13.0446 3.77844
-20.8113 12.896 3.75961
-20.76 12.7491 3.74107
-20.7095 12.6036 3.72279
-20.6596 12.4597 3.70479
-20.6104 12.3173 3.68706
-20.5618 12.1764 3.66958
-20.5139 12.0369 3.65237
-20.4666 11.8988 3.63541
-20.4199 11.7621 3.61869
-20.3228 11.5976 3.59318
-20.2123 11.4271 3.5655
-30.3857 17.0178 5.34799
-30.4321 16.8834 5.34417
-30.4785 16.7493 5.34044
-30.6925 16.7066 5.36614
-38.1772 19.6023 6.59013
-38.6858 19.6673 6.66422
-39.2082 19.7349 6.74049
-22.5806 11.2521 3.87414
-22.3764 11.0383 3.83146
-22.3805 10.9287 3.82462
-22.4063 10.8299 3.82155
-22.5167 10.7719 3.83297
-22.6278 10.7135 3.84452
-41.0046 19.2128 6.95359
-41.0623 19.0389 6.95034
-41.1202 18.8653 6.94725
-41.1783 18.6919 6.94433
-41.1872 18.4966 6.93324
-41.1722 18.2914 6.91826
-41.1575 18.0871 6.90352
-33.8559 14.7162 5.66883
-33.7827 14.5232 5.64675
-33.7103 14.3318 5.62498
-33.6387 14.142 5.60349
-33.5678 13.9537 5.5823
-33.4978 13.7669 5.56139
-33.3607 13.554 5.52955
-33.1237 13.3029 5.48135
-32.8911 13.0561 5.43413
-32.5472 12.7684 5.36879
-32.1356 12.4581 5.29259
-33.1907 12.7139 5.45791
-32.8792 12.4433 5.39841
-32.7262 12.2352 5.36517
-31.4622 11.6187 5.15026
-31.3755 11.4435 5.12849
-31.2897 11.27 5.10703
-31.2048 11.0979 5.08584
-31.0886 10.9159 5.05971
-30.9469 10.7266 5.02958
-30.1134 10.3024 4.88736
-30.5714 10.3219 4.95491
-31.0432 10.3424 5.0246
-31.2815 10.2823 5.05645
-31.3881 10.1777 5.06702
-31.4953 10.0727 5.07774
-31.6032 9.96736 5.08864
-31.4352 9.77559 5.05521
-29.2328 8.96201 4.69521
-29.2346 8.83413 4.68976
-29.2366 8.70662 4.68442
-29.2389 8.57952 4.67924
-29.2415 8.45277 4.67417
-29.2444 8.32636 4.66926
-29.2476 8.20031 4.66446
-29.2031 8.06134 4.65215
-29.09 7.90441 4.62905
-28.9785 7.74916 4.6063
-32.615 8.58128 5.17882
