ply
format ascii 1.0
comment Created by Open3D
element vertex 1905
property float x
property float y
property float z
end_header
17.1265 -78.7814 2.45763
17.4835 -78.8945 2.46333
17.851 -79.047 2.47031
18.2131 -79.1677 2.47636
18.5704 -79.2611 2.48159
18.9292 -79.3551 2.48689
19.291 -79.4553 2.49245
19.6759 -79.643 2.50079
20.0724 -79.8672 2.51035
20.6027 -80.6053 2.53613
18.5137 -71.2376 2.2437
21.3429 -80.7884 2.54721
21.8133 -81.2451 2.56435
22.2413 -81.5292 2.57612
22.6617 -81.7739 2.58671
23.1516 -82.2555 2.60487
23.6933 -82.9009 2.6283
24.2085 -83.4328 2.64823
24.6001 -83.526 2.6543
24.9522 -83.482 2.65607
25.3143 -83.4688 2.65886
25.677 -83.4555 2.6617
26.0406 -83.4422 2.6646
26.3909 -83.3845 2.66612
26.741 -83.3248 2.66763
27.0974 -83.2831 2.66976
27.5061 -83.3983 2.67697
27.917 -83.5142 2.68428
28.3247 -83.6146 2.69114
28.728 -83.6963 2.69747
29.1331 -83.7784 2.70386
6.24559 -8.45617 0.32046
6.25152 -8.39336 0.31903
6.28969 -8.3741 0.319257
72.5867 -48.4877 2.66096
72.9959 -48.3378 2.66881
73.3039 -48.119 2.67298
73.6603 -47.9303 2.67893
73.0528 -47.1181 2.64995
73.8694 -47.2253 2.67264
73.9661 -46.8695 2.6693
74.029 -46.4933 2.66481
86.228 -50.3632 3.04402
86.2119 -49.8901 3.03635
86.196 -49.4194 3.02877
86.1803 -48.9511 3.02128
86.1648 -48.4853 3.01388
86.1495 -48.0216 3.00657
86.1343 -47.5604 2.99934
86.1194 -47.1013 2.9922
86.1046 -46.6446 2.98515
86.09 -46.19 2.97818
86.0756 -45.7376 2.9713
86.0614 -45.2873 2.9645
86.0473 -44.8392 2.95778
86.0335 -44.3931 2.95115
86.0197 -43.949 2.94459
86.0061 -43.507 2.93812
85.2236 -42.6817 2.9055
83.6571 -41.4774 2.84638
83.4454 -40.9554 2.83356
83.5058 -40.5692 2.83005
83.4545 -40.1305 2.82282
83.6237 -39.7988 2.82311
83.984 -39.557 2.82989
84.3295 -39.3062 2.83618
84.8027 -39.1126 2.8468
84.867 -38.7293 2.84369
84.8672 -38.3179 2.83851
84.8423 -37.8969 2.83256
84.9184 -37.5221 2.83004
84.8677 -37.0927 2.82333
84.8679 -36.6871 2.81844
84.8163 -36.2608 2.81184
84.9517 -35.9155 2.81154
84.8167 -35.4572 2.80233
83.7051 -34.5979 2.76099
63.1924 -25.8224 2.08094
84.3094 -34.0566 2.7718
83.5055 -33.342 2.74094
83.5092 -32.9549 2.73669
83.5093 -32.5676 2.73238
83.5169 -32.1843 2.72837
83.6379 -31.8455 2.72813
84.0762 -31.626 2.73818
84.3251 -31.3332 2.74224
84.1739 -30.8925 2.73326
84.467 -30.6153 2.73876
84.4672 -30.2318 2.73479
73.0916 -25.8293 2.36311
72.9765 -25.4591 2.35606
73.1927 -25.2049 2.35975
73.5764 -25.0067 2.36886
73.4331 -24.6291 2.36104
73.0758 -24.1829 2.34641
74.2118 -24.2283 2.37974
84.4686 -27.2017 2.70511
84.5137 -26.8418 2.7031
84.5855 -26.4907 2.70195
84.5857 -26.1179 2.69858
84.5733 -25.7421 2.69483
84.4694 -25.3399 2.68828
84.4696 -24.9702 2.68507
84.4697 -24.6015 2.68191
84.4699 -24.2336 2.67881
84.5867 -23.8995 2.67944
84.5869 -23.5328 2.67642
84.587 -23.1669 2.67347
84.4705 -22.7704 2.66686
84.1677 -22.3262 2.65445
84.1679 -21.9645 2.65165
84.1781 -21.6061 2.64921
84.4612 -21.3171 2.6554
84.4675 -20.958 2.65293
84.5781 -20.6249 2.65377
84.5783 -20.265 2.65121
84.5785 -19.9059 2.64868
84.462 -19.5204 2.64256
84.4621 -19.1631 2.64013
84.4623 -18.8065 2.63775
84.4624 -18.4505 2.63542
84.5066 -18.1045 2.6345
84.5795 -17.7648 2.63453
84.5796 -17.4101 2.63233
84.5672 -17.0535 2.62979
84.4632 -16.6795 2.62445
84.4634 -16.327 2.62239
84.4636 -15.975 2.62038
73.8693 -13.6639 2.28999
72.9212 -13.1856 2.25894
73.1914 -12.9308 2.26568
73.6249 -12.7024 2.2775
73.0976 -12.3091 2.25963
72.8086 -11.9596 2.2492
73.5507 -11.7781 2.27064
73.3089 -11.4373 2.26174
78.5754 -11.9356 2.42272
78.652 -11.624 2.42362
78.8055 -11.3231 2.42693
79.065 -11.0362 2.43354
79.4809 -10.7687 2.44499
80.0261 -10.5152 2.46044
80.0262 -10.1881 2.45916
80.0262 -9.86133 2.45792
80.0253 -9.5348 2.4567
80.0245 -9.20863 2.45551
80.0236 -8.88271 2.45437
80.0227 -8.55713 2.45327
80.0221 -8.2318 2.45222
80.0233 -7.90697 2.45126
80.0245 -7.58236 2.45034
80.0256 -7.25803 2.44947
80.0268 -6.93389 2.44863
80.0278 -6.60996 2.44783
80.028 -6.28617 2.44704
79.7903 -5.9449 2.43902
79.1465 -5.57709 2.41864
78.8209 -5.23576 2.40802
78.6536 -4.90721 2.40229
78.5767 -4.58537 2.39936
78.5532 -4.26719 2.3981
78.603 -3.95311 2.39912
78.7325 -3.64236 2.4026
78.9399 -3.33398 2.4085
79.3036 -3.03002 2.41921
79.7918 -2.72752 2.43375
79.7919 -2.40641 2.43344
79.497 -2.07771 2.42417
78.9827 -1.74656 2.40825
78.7184 -1.42412 2.4
78.5571 -1.10535 2.39492
78.5071 -0.788984 2.39328
78.5058 -0.473359 2.39317
78.5559 -0.157852 2.39466
78.7127 0.158242 2.39944
78.9669 0.476191 2.40722
79.4488 0.798457 2.42199
79.7935 1.12275 2.43262
79.9715 1.44682 2.4382
79.7284 1.76305 2.43099
79.9706 2.0901 2.43861
79.9698 2.41182 2.43886
79.9689 2.73355 2.43915
79.2123 3.02654 2.41642
79.2289 3.34623 2.41732
79.2291 3.66535 2.41775
79.97 4.02186 2.44084
79.9711 4.34424 2.44139
79.9723 4.66684 2.44197
79.7952 4.97842 2.43716
79.7954 5.30055 2.43779
79.7955 5.62281 2.43847
79.2092 5.90164 2.42126
78.8748 6.19564 2.41178
78.6752 6.49828 2.40646
78.5478 6.80578 2.40338
78.4983 7.11953 2.40272
78.5224 7.4401 2.40435
78.6028 7.76666 2.40775
78.7747 8.10352 2.41399
63.2848 6.76728 1.94013
79.797 8.85758 2.44743
79.7971 9.18246 2.44854
79.234 9.44055 2.4324
78.9395 9.72748 2.42454
78.755 10.0263 2.4201
78.636 10.3326 2.4177
78.5414 10.6415 2.41609
78.6186 10.9739 2.4198
78.714 11.3101 2.42411
78.9126 11.6626 2.43165
79.4003 12.061 2.44816
80.0663 12.4916 2.47022
80.0665 12.8216 2.47179
79.844 13.1154 2.46653
79.2169 13.3396 2.4488
79.2335 13.6702 2.45099
79.2337 13.9985 2.45272
80.0621 14.4769 2.48014
80.0623 14.8096 2.48197
80.0635 15.1429 2.48388
80.0646 15.4767 2.48582
80.0658 15.8111 2.48781
80.0261 16.1378 2.48857
80.0681 16.4815 2.49192
80.0683 16.8173 2.49401
79.6455 17.0631 2.48296
79.2 17.3009 2.47122
78.9271 17.5741 2.46489
78.753 17.8679 2.46167
78.6377 18.1744 2.46033
78.5449 18.4859 2.45973
78.6275 18.8393 2.46467
78.7495 19.2035 2.4709
79.0323 19.6094 2.48222
74.2076 20.9671 2.35066
73.2744 21.0218 2.32376
73.4355 21.3879 2.33157
73.758 21.8039 2.34458
73.2573 21.9764 2.33145
73.3976 22.3405 2.33875
73.1101 22.5746 2.33247
72.8438 22.8135 2.32688
88.304 40.2979 2.95885
87.3732 40.2983 2.93307
86.4585 40.2987 2.90778
85.5594 40.299 2.88297
84.6754 40.2994 2.85862
83.8064 40.2998 2.83472
82.9517 40.3002 2.81127
82.111 40.3005 2.78825
82.1262 40.7185 2.7943
82.1264 41.1307 2.79991
82.1266 41.5445 2.80559
82.0465 41.9191 2.80859
82.127 42.3775 2.81715
82.1272 42.7964 2.82303
82.1166 43.2116 2.82862
82.1275 43.6398 2.83502
82.1277 44.0642 2.84111
82.1279 44.4904 2.84728
82.1281 44.9185 2.85353
82.1283 45.3484 2.85985
82.1285 45.7803 2.86624
82.1287 46.2141 2.8727
82.1289 46.65 2.87925
82.1291 47.0877 2.88587
82.1293 47.5276 2.89257
82.1295 47.9694 2.89934
82.1297 48.4134 2.90619
82.1299 48.8594 2.91313
82.1301 49.3076 2.92014
82.1303 49.758 2.92724
82.1305 50.2105 2.93442
82.1306 50.6653 2.94167
82.1309 51.1224 2.94902
82.1311 51.5818 2.95645
82.1313 52.0434 2.96396
82.1315 52.5075 2.97156
82.1317 52.9739 2.97925
82.1319 53.4429 2.98703
82.1321 53.9142 2.99489
82.1323 54.388 3.00285
63.386 42.3417 2.32367
82.0523 55.2891 3.01608
81.4576 55.3657 3.00237
81.0852 55.5905 2.99686
80.7465 55.8367 2.99261
80.4262 56.0946 2.98908
80.2251 56.4351 2.98989
80.345 57.0036 3.00302
80.4143 57.5401 3.01421
54.0408 44.1856 2.1279
53.9526 45.2101 2.14574
42.4784 42.1807 1.82484
42.4406 42.4834 1.83054
42.4451 42.8308 1.83814
39.614 42.2902 1.76639
39.6119 42.6301 1.77392
39.6234 42.9877 1.78216
33.0974 42.2694 1.63652
32.8634 42.3199 1.63334
32.8613 42.6702 1.64175
32.8725 43.0415 1.65094
30.2103 42.3099 1.58478
30.0332 42.4213 1.58442
30.041 42.7962 1.5939
6.26514 24.1072 0.75928
6.32494 59.716 1.83055
6.38535 91.9348 2.80923
-2.32371 74.5604 2.27396
-2.34447 42.3713 1.2936
-7.01895 70.3127 2.15402
-9.5991 64.5018 1.98789
-9.87295 64.5582 1.99084
-10.1127 64.3925 1.98697
-10.3425 64.1718 1.98142
-10.5745 63.9732 1.97659
-13.0651 64.4543 2.00474
-13.3471 64.5123 2.0082
-13.6314 64.5768 2.01189
-13.8291 64.2345 2.00295
-14.0827 64.1577 2.0023
-14.8046 64.9488 2.03064
-15.0138 64.6657 2.02366
-15.2023 64.303 2.01421
-15.4843 64.3399 2.0173
-15.744 64.2818 2.01744
-15.9727 64.099 2.0137
-16.1999 63.9148 2.00995
-20.3521 78.9625 2.48571
-20.3526 77.6714 2.44762
-20.1402 75.6198 2.3855
-20.1407 74.4175 2.35011
-20.3543 74.0251 2.34029
-20.4622 73.2643 2.31881
-20.7817 73.2701 2.32162
-21.1018 73.2752 2.32443
-21.4328 73.3151 2.32843
-19.2678 64.9388 2.06485
-19.5334 64.8764 2.06535
-19.665 64.3751 2.05189
-19.9259 64.3026 2.05211
-20.2248 64.3512 2.05624
-20.4306 64.104 2.05095
-23.6788 73.2763 2.34744
-2.21129 6.75008 0.216524
-2.23018 6.71637 0.215729
-2.25652 6.70547 0.215668
-2.28797 6.70957 0.216095
-22.0682 63.875 2.06006
-22.2449 63.5574 2.05269
-25.992 73.3171 2.37124
-26.3243 73.3173 2.37465
-26.6432 73.2777 2.37682
-26.9772 73.2778 2.38032
-18.4811 48.3916 1.57906
-18.6527 48.2581 1.57713
-18.8512 48.1947 1.57753
-19.0498 48.1313 1.57794
-18.5707 46.3748 1.52279
-18.6638 46.0699 1.51523
-18.4888 45.116 1.48629
-18.7582 45.2541 1.49331
-18.7046 44.6168 1.47475
-18.9047 44.5906 1.47639
-14.4921 33.8037 1.12116
-14.5976 33.6754 1.11884
-14.7576 33.6728 1.12071
-18.093 40.8361 1.36153
-18.0932 40.3972 1.34932
-15.9959 35.3333 1.18231
-14.4908 31.6691 1.06164
-14.5928 31.556 1.05981
-14.7428 31.547 1.06149
-18.0941 38.3159 1.29169
-18.0943 37.9207 1.2808
-18.0945 37.5322 1.27013
-17.4342 35.794 1.21367
-17.5606 35.6884 1.21247
-18.0286 36.2708 1.23483
-18.0288 35.9082 1.22482
-18.0289 35.5514 1.21512
-18.0291 35.2002 1.20558
-18.0293 34.8545 1.19621
-18.0295 34.5141 1.18701
-16.0055 30.3418 1.04572
-16.1105 30.2456 1.04463
-16.2751 30.2607 1.0474
-18.0704 33.2774 1.15433
-18.0705 32.961 1.14586
-18.0707 32.6492 1.13754
-18.0708 32.3419 1.12935
-18.0305 31.9675 1.11879
-18.0307 31.6695 1.11089
-18.0308 31.3757 1.10311
-18.0309 31.086 1.09548
-17.4401 29.7907 1.05229
-17.5535 29.7099 1.05192
-17.7365 29.746 1.05572
-18.0315 29.9661 1.06609
-18.0316 29.6954 1.05903
-18.0637 29.4805 1.054
-18.0982 29.2719 1.04908
-18.0983 29.0107 1.04233
-18.0984 28.7529 1.03566
-18.0985 28.4983 1.02911
-18.0986 28.2469 1.02265
-18.0987 27.9987 1.01629
-18.0988 27.7535 1.01002
-18.0989 27.5113 1.00385
-18.0327 27.1721 0.994075
-18.0991 27.0357 0.991768
-18.0992 26.8021 0.985862
-18.0993 26.5714 0.980044
-18.0994 26.3432 0.974308
-18.0995 26.1179 0.968653
-18.0996 25.8951 0.963078
-18.0997 25.6747 0.957583
-18.0999 25.457 0.952169
-18.0999 25.2416 0.946829
-18.0791 24.9998 0.940473
-18.2326 24.9998 0.943225
-18.3871 24.9999 0.946008
-18.5425 25 0.948824
-18.6988 25.0001 0.951671
-18.856 25.0001 0.954552
-19.0143 25.0002 0.957466
-19.1734 25.0003 0.960412
-19.3336 25.0004 0.963393
-19.4947 25.0004 0.966408
-19.4955 24.7951 0.961495
-19.4956 24.5912 0.956616
-19.4956 24.3892 0.951802
-19.4957 24.1893 0.947052
-19.4958 23.9914 0.942363
-19.4959 23.7954 0.937736
-19.496 23.6013 0.933168
-19.4961 23.4091 0.928662
-19.6379 23.3876 0.930922
-19.7988 23.3877 0.934094
-19.9608 23.3877 0.937288
-20.124 23.3878 0.940532
-20.2882 23.3879 0.943807
-20.4536 23.3879 0.94712
-20.6202 23.388 0.950473
-20.7879 23.3881 0.953864
-20.9569 23.3882 0.957296
-21.1271 23.3882 0.960767
-21.2986 23.3883 0.964279
-21.4712 23.3884 0.967833
-21.6452 23.3885 0.97143
-21.8205 23.3886 0.975069
-21.9971 23.3886 0.978747
-22.175 23.3887 0.982472
-22.3543 23.3888 0.986247
-31.9902 33.2025 1.40547
-31.4454 32.3755 1.3758
-31.2018 31.8674 1.35953
-16.4799 16.6966 0.715139
-16.48 16.5629 0.712247
-16.48 16.4304 0.709392
-16.4801 16.2989 0.706562
-16.4801 16.1684 0.703772
-16.4802 16.0389 0.701011
-16.4802 15.9104 0.698285
-16.4803 15.783 0.695596
-16.4803 15.6565 0.692939
-16.4804 15.5311 0.690309
-16.4804 15.4064 0.687711
-16.4805 15.2828 0.685144
-16.4806 15.1601 0.682608
-16.4806 15.0383 0.680101
-16.4807 14.9174 0.677621
-16.4807 14.7973 0.675172
-16.4807 14.6782 0.672752
-16.4808 14.5598 0.67036
-16.4809 14.4423 0.667995
-16.4809 14.3256 0.665654
-15.0019 12.9346 0.603849
-16.481 14.0947 0.661061
-16.4811 13.9804 0.658805
-16.4811 13.8669 0.656574
-16.4812 13.7542 0.654368
-16.4812 13.6422 0.652187
-16.4813 13.531 0.650032
-16.4813 13.4205 0.647901
-16.4814 13.3107 0.645794
-16.4814 13.2016 0.643711
-16.4815 13.0932 0.641652
-16.4815 12.9855 0.639616
-16.4174 12.8284 0.63513
-16.4371 12.7377 0.633897
-16.4242 12.6223 0.631437
-16.3994 12.4987 0.628548
-16.3771 12.378 0.625781
-16.3771 12.2749 0.623893
-16.3772 12.1725 0.622024
-16.3772 12.0706 0.620181
-16.3773 11.9693 0.618353
-15.0029 10.8726 0.564806
-15.0459 10.8118 0.564787
-16.3774 11.6691 0.612998
-16.3775 11.5701 0.611256
-16.3775 11.4718 0.609532
-16.3924 11.3842 0.60838
-16.4084 11.2978 0.607285
-16.4243 11.2117 0.606196
-16.44 11.1259 0.605127
-16.4182 11.0151 0.602684
-16.4824 10.9623 0.603419
-16.4824 10.8671 0.601815
-16.4825 10.7723 0.600232
-16.4826 10.678 0.598665
-16.4826 10.5842 0.597115
-16.4826 10.4909 0.595584
-16.4827 10.398 0.594071
-16.4827 10.3057 0.592574
-16.4827 10.2137 0.591095
-16.4828 10.1223 0.589633
-16.4829 10.0313 0.588187
-16.4829 9.94078 0.586758
-16.4829 9.85064 0.585345
-16.4829 9.76094 0.583948
-16.483 9.6717 0.582567
-16.483 9.58285 0.581202
-16.4831 9.49439 0.579853
-16.4831 9.40639 0.57852
-16.4832 9.31877 0.577202
-16.4832 9.23156 0.575899
-16.4832 9.14471 0.574611
-16.4832 9.0583 0.573338
-16.4833 8.97223 0.572081
-16.4834 8.88654 0.570837
-16.4834 8.80123 0.569609
-16.4834 8.71629 0.568395
-16.4835 8.63168 0.567195
-16.4835 8.54744 0.566008
-16.4835 8.46355 0.564837
-16.4835 8.38002 0.56368
-16.4836 8.29682 0.562536
-16.4837 8.21396 0.561406
-16.4837 8.13141 0.56029
-16.4837 8.04922 0.559186
-16.4838 7.9673 0.558096
-16.4838 7.88574 0.55702
-16.4838 7.80449 0.555957
-16.4838 7.72355 0.554906
-16.4839 7.64289 0.553869
-16.4839 7.56256 0.552844
-16.484 7.4825 0.551832
-16.484 7.40275 0.550832
-16.484 7.32326 0.549845
-16.4841 7.2441 0.548871
-16.4862 7.16605 0.547973
-16.6769 7.16941 0.553353
-16.8714 7.17283 0.558846
-17.0629 7.1734 0.564228
-17.257 7.17348 0.569689
-17.4548 7.17355 0.575264
-17.6566 7.17363 0.580958
-17.8624 7.17375 0.586777
-18.0723 7.17383 0.592721
-18.2866 7.17394 0.598799
-18.5054 7.17402 0.605011
-18.7286 7.17414 0.611363
-18.9567 7.17422 0.617864
-19.1896 7.17434 0.624509
-19.4276 7.17443 0.631311
-19.6709 7.17453 0.638277
-19.9196 7.17465 0.645404
-20.1739 7.17477 0.652703
-20.4341 7.17488 0.660181
-20.7002 7.175 0.667843
-20.9726 7.17514 0.675696
-21.2516 7.17525 0.683748
-21.5372 7.17539 0.692005
-21.8298 7.17551 0.700473
-22.1298 7.17564 0.709166
-22.4372 7.17578 0.718088
-22.7574 7.17746 0.727406
-23.0903 7.18055 0.737119
-84.9347 26.0387 2.70804
-84.8063 25.6269 2.70064
-84.6787 25.2172 2.69332
-84.5122 24.7982 2.68483
-84.3451 24.3814 2.67639
-87.5363 24.923 2.77445
-84.5731 23.7122 2.67749
-87.5256 24.161 2.76786
-87.5204 23.7812 2.76465
-87.5153 23.4025 2.7615
-87.5103 23.0246 2.7584
-87.5054 22.6476 2.75535
-87.5006 22.2714 2.75236
-87.4958 21.8961 2.74942
-87.4912 21.5216 2.74653
-87.4866 21.1479 2.7437
-85.8094 20.3777 2.68851
-86.0208 20.0629 2.69257
-86.0209 19.6987 2.69008
-86.0206 19.335 2.68762
-86.0203 18.972 2.68521
-86.0199 18.6096 2.68284
-86.1021 18.2654 2.6831
-86.1906 17.9224 2.68358
-86.1907 17.5613 2.68137
-86.1909 17.2008 2.6792
-86.191 16.8407 2.67708
-86.1912 16.4813 2.675
-86.1913 16.1225 2.67297
-86.1914 15.7641 2.67099
-86.1916 15.4064 2.66906
-86.1917 15.0491 2.66716
-86.0201 14.663 2.66001
-86.0219 14.3078 2.65826
-86.0227 13.9528 2.65653
-86.0232 13.5982 2.65484
-86.0238 13.244 2.65319
-59.5028 8.91617 1.8341
-85.813 12.5061 2.64349
-86.1341 12.1995 2.65187
-87.1266 11.983 2.68091
-87.1228 11.6258 2.67934
-87.1192 11.2691 2.67781
-86.1457 10.7913 2.64653
-86.2216 10.4488 2.64756
-87.109 10.2013 2.67352
-87.1059 9.84613 2.67219
-82.1839 8.95525 2.52007
-85.0605 8.92289 2.60716
-84.8621 8.55734 2.6
-84.7512 8.20215 2.59557
-84.6285 7.84697 2.59083
-84.4856 7.49137 2.58551
-84.3433 7.13711 2.58026
-85.2342 6.86748 2.60665
-84.5332 6.46918 2.58439
-87.0808 6.31207 2.66148
-87.0789 5.96018 2.66067
-87.0772 5.60844 2.65991
-87.0756 5.25691 2.65919
-87.0741 4.90561 2.65852
-92.3166 4.82875 2.81797
-87.9099 -1.06021 1.70512
-87.8394 -1.41256 1.70385
-87.8395 -1.76576 1.70397
-87.8397 -2.1191 1.70413
-87.8399 -2.47242 1.70431
-87.84 -2.82584 1.70452
-87.8402 -3.17941 1.70476
-87.8403 -3.53305 1.70502
-87.8405 -3.88678 1.70532
-87.8406 -4.24066 1.70564
-87.8408 -4.59469 1.70598
-87.841 -4.94883 1.70636
-87.8411 -5.30318 1.70676
-87.8413 -5.65766 1.70719
-87.8414 -6.01236 1.70765
-87.8416 -6.36723 1.70814
-87.8417 -6.72232 1.70865
-87.8419 -7.0776 1.7092
-87.842 -7.4332 1.70977
-85.3925 -7.57178 1.66267
-85.3935 -7.91795 1.66329
-85.3945 -8.26437 1.66395
-85.3955 -8.61117 1.66463
-84.1097 -8.8232 1.64024
-85.3978 -9.30555 1.66608
-51.7878 -5.85391 1.01081
-49.9937 -5.85471 0.976244
-48.3177 -5.85547 0.943967
-47.8714 -5.99674 0.935715
-47.8716 -6.19232 0.936194
-47.8716 -6.38809 0.936691
-47.8717 -6.5841 0.937204
-47.6223 -6.74492 0.93285
-47.8719 -6.9767 0.938275
-48.0032 -7.19301 0.941408
-48.0034 -7.39047 0.941984
-48.0035 -7.58816 0.942577
-48.0035 -7.78609 0.943186
-48.0036 -7.9843 0.943811
-48.0037 -8.18273 0.944451
-48.0038 -8.38148 0.945108
-48.0039 -8.58051 0.945781
-48.004 -8.7798 0.946471
-48.004 -8.97941 0.947177
-48.0041 -9.17926 0.947899
-48.0042 -9.37949 0.948638
-48.0043 -9.58 0.949393
-48.0044 -9.78086 0.950164
-48.0045 -9.98199 0.950953
-48.0046 -10.1835 0.951758
-48.0047 -10.3854 0.95258
-48.0048 -10.5876 0.953418
-48.0049 -10.7902 0.954274
-48.0049 -10.9931 0.955147
-48.005 -11.1964 0.956036
-48.0051 -11.4001 0.956943
-47.8739 -11.5724 0.955247
-47.874 -11.7763 0.956186
-47.6018 -11.9125 0.951697
-47.8742 -12.1854 0.958115
-47.8743 -12.3906 0.959106
-47.8744 -12.5961 0.960115
-47.3262 -12.6555 0.950131
-46.6452 -12.6746 0.937477
-46.5406 -12.8473 0.936405
-45.7999 -12.8411 0.922532
-46.5408 -13.2509 0.938522
-46.5409 -13.4534 0.939608
-46.6305 -13.6827 0.942512
-46.8271 -13.9451 0.947619
-46.8272 -14.1503 0.948764
-46.8273 -14.356 0.949928
-46.8274 -14.5622 0.95111
-46.6097 -14.7003 0.947874
-46.5487 -14.887 0.947849
-46.5416 -15.0913 0.948932
-45.75 -15.0381 0.934017
-46.5418 -15.5059 0.951447
-46.5419 -15.7141 0.952732
-34.1052 -11.6679 0.699103
-33.894 -11.748 0.695737
-33.8643 -11.8904 0.696102
-46.6302 -16.5838 0.959877
-46.6606 -16.8062 0.96188
-46.6606 -17.0185 0.963286
-46.6607 -17.2313 0.964714
-46.6609 -17.4449 0.966159
-46.661 -17.659 0.967619
-46.661 -17.8738 0.969104
-46.6612 -18.0893 0.970611
-46.543 -18.2591 0.969671
-46.5431 -18.4753 0.971212
-46.5432 -18.6923 0.972774
-46.5433 -18.91 0.974357
-46.5434 -19.1283 0.975961
-46.5435 -19.3475 0.977587
-46.5436 -19.5673 0.979232
-33.6018 -14.2856 0.708153
-33.7092 -14.4915 0.711636
-46.83 -20.3557 0.990351
-46.8301 -20.5799 0.992095
-46.8302 -20.805 0.993859
-46.6756 -20.9614 0.992359
-46.6358 -21.1692 0.993286
-46.5444 -21.3538 0.993189
-46.5445 -21.5807 0.995034
-46.5446 -21.8086 0.996908
-46.6389 -22.0818 1.00082
-45.7365 -21.88 0.983313
-49.7789 -29.4783 1.12204
-49.3259 -29.4785 1.11449
-48.879 -29.4787 1.10697
-48.4379 -29.4789 1.09975
-48.0027 -29.4791 1.09255
-47.573 -29.4793 1.08546
-47.149 -29.4795 1.07848
-46.7303 -29.4797 1.0716
-46.402 -29.534 1.06679
-46.4021 -29.7968 1.06953
-46.4022 -30.061 1.07231
-46.4023 -30.3266 1.07512
-46.4024 -30.5936 1.07797
-46.4025 -30.862 1.08084
-46.4027 -31.1319 1.08375
-46.4028 -31.4032 1.08669
-46.4029 -31.676 1.08967
-46.403 -31.9503 1.09268
-46.4031 -32.2261 1.09572
-46.4033 -32.5035 1.0988
-46.4034 -32.7824 1.10192
-46.4035 -33.0629 1.10507
-46.4036 -33.3451 1.10825
-46.4038 -33.6289 1.11148
-46.4039 -33.9143 1.11474
-46.404 -34.2014 1.11803
-46.4041 -34.4902 1.12137
-46.4043 -34.7808 1.12474
-46.4044 -35.0731 1.12815
-46.4045 -35.3672 1.1316
-46.4046 -35.6631 1.13509
-46.4048 -35.9608 1.13862
-46.4049 -36.2604 1.14219
-46.405 -36.5619 1.1458
-46.4052 -36.8654 1.14946
-46.4053 -37.1707 1.15315
-46.4055 -37.4781 1.15689
-46.4056 -37.7874 1.16067
-46.4063 -38.0992 1.16451
-46.4071 -38.4132 1.1684
-46.4078 -38.7293 1.17233
-46.4086 -39.0475 1.1763
-46.4094 -39.3679 1.18032
-46.4101 -39.6904 1.18439
-46.411 -40.0153 1.18851
-46.4117 -40.3423 1.19267
-49.9216 -43.7468 1.28737
-49.9218 -44.103 1.29194
-50.0422 -44.5688 1.29969
-50.0424 -44.9311 1.30437
-50.0426 -45.2958 1.30911
-49.9808 -45.6068 1.31228
-49.9226 -45.9229 1.31559
-49.9228 -46.2949 1.32049
-32.969 -38.3162 0.980366
-32.6882 -38.3002 0.976586
-64.0165 -75.6207 1.92162
-63.4578 -75.5746 1.91395
-62.8947 -75.5184 1.90612
-62.3362 -75.4627 1.89837
-61.7844 -75.4101 1.89078
-61.2602 -75.3863 1.884
-60.7486 -75.374 1.87756
-60.2408 -75.3619 1.87122
-59.7528 -75.3707 1.86546
-59.2733 -75.3864 1.85994
-58.7901 -75.3936 1.85426
-58.3098 -75.4007 1.84866
-57.8383 -75.4156 1.84331
-57.3831 -75.4482 1.83846
-56.9272 -75.4765 1.83356
-56.4737 -75.5046 1.82871
-56.0224 -75.5326 1.82392
-55.5751 -75.5624 1.81922
-55.1554 -75.6268 1.81543
-54.7374 -75.691 1.81167
-54.3212 -75.7549 1.80796
-53.9142 -75.829 1.80454
-53.5624 -75.9793 1.80299
-53.2157 -76.1354 1.80159
-52.8694 -76.2914 1.80024
-52.5237 -76.4471 1.79892
-52.0795 -76.4572 1.79422
-51.6735 -76.5206 1.79081
-51.3066 -76.6397 1.78876
-50.9406 -76.7586 1.78675
-50.5583 -76.8514 1.78416
-50.1688 -76.931 1.7813
-49.781 -77.0112 1.77851
-49.398 -77.0968 1.77589
-49.0217 -77.1909 1.77351
-48.6578 -77.3027 1.77157
-48.2946 -77.4143 1.76966
-47.9322 -77.5258 1.76779
-47.5567 -77.6141 1.76543
-47.2026 -77.736 1.76387
-46.8521 -77.8626 1.76246
-46.5286 -78.0334 1.76207
-46.2053 -78.2042 1.76172
-45.8451 -78.3116 1.75998
-45.4833 -78.415 1.75817
-45.1235 -78.5202 1.75646
-44.7645 -78.6254 1.75476
-44.3883 -78.6987 1.7524
-43.9926 -78.7352 1.74927
-43.5883 -78.7536 1.74577
-43.1674 -78.7386 1.74158
-42.7486 -78.7237 1.73743
-42.3349 -78.7148 1.73346
-41.9253 -78.71 1.72964
-41.5203 -78.7106 1.72597
-41.1202 -78.7173 1.72248
-40.7217 -78.7241 1.71903
-40.3158 -78.713 1.71523
-39.9048 -78.6886 1.71119
-39.504 -78.6808 1.70755
-39.1156 -78.6946 1.70443
-38.7287 -78.7084 1.70134
-38.341 -78.7179 1.6982
-37.9521 -78.7216 1.69498
-37.5599 -78.7154 1.69158
-37.1499 -78.6683 1.68734
-36.742 -78.6214 1.68316
-36.336 -78.5748 1.67901
-35.9531 -78.5743 1.6759
-35.57 -78.5703 1.67276
-35.1708 -78.5273 1.66881
-34.7735 -78.4844 1.66491
-34.3781 -78.4417 1.66107
-33.9767 -78.3814 1.65688
-33.5657 -78.2943 1.65217
-33.1635 -78.2229 1.64785
-32.7633 -78.1518 1.64355
-32.3653 -78.0811 1.63933
-31.9692 -78.0109 1.63514
-31.5775 -77.9464 1.63111
-31.1578 -77.8079 1.62558
-30.7506 -77.6945 1.62061
-30.3458 -77.5818 1.6157
-29.9435 -77.4698 1.61085
-29.5436 -77.3584 1.60606
-29.1698 -77.3109 1.60262
-28.7908 -77.2449 1.59884
-28.3991 -77.1403 1.5943
-28.0097 -77.0362 1.58981
-27.6224 -76.9327 1.58537
-27.2601 -76.8941 1.5823
-26.9128 -76.8945 1.58007
-26.5665 -76.8949 1.57787
-26.2087 -76.859 1.57497
-25.8501 -76.8173 1.57196
-25.4931 -76.7757 1.569
-25.1454 -76.7589 1.56658
-4.06471 -12.5786 0.25638
-24.4556 -76.7332 1.56199
-24.1144 -76.7272 1.55989
-23.7754 -76.7257 1.5579
-23.4373 -76.7244 1.55595
-23.1052 -76.7398 1.55436
-22.7741 -76.7565 1.55284
-22.4437 -76.7732 1.55133
-22.1272 -76.8364 1.5508
-21.8176 -76.9224 1.55076
-21.5079 -77.0084 1.55073
-21.1859 -77.0497 1.54984
-20.8558 -77.0598 1.54835
-20.5288 -77.0789 1.54706
-20.2119 -77.1347 1.54653
-19.8953 -77.1905 1.54604
-19.5788 -77.2462 1.54556
-19.2605 -77.2934 1.54494
-18.9368 -77.3178 1.5439
-18.6098 -77.3269 1.54257
-18.2813 -77.3269 1.54109
-17.9533 -77.3269 1.53964
-17.6261 -77.327 1.53822
-17.2992 -77.3259 1.53681
-16.9683 -77.3043 1.53501
-16.6419 -77.2997 1.53358
-16.3233 -77.3295 1.53285
-16.005 -77.3592 1.53216
-15.687 -77.389 1.53148
-15.3692 -77.4187 1.53084
-15.048 -77.4288 1.52983
-14.7224 -77.4142 1.52836
-14.3927 -77.3736 1.5264
-14.0637 -77.333 1.52447
-13.7356 -77.2927 1.52258
-10.7599 -61.9932 1.22032
-13.086 -77.2368 1.51935
-12.768 -77.2439 1.51847
-12.4468 -77.2288 1.51718
-12.1237 -77.1985 1.51561
-11.8013 -77.1681 1.51407
-11.4795 -77.1379 1.51256
-11.1593 -77.1145 1.51121
-10.8439 -77.1202 1.51046
-10.5286 -77.1259 1.50973
-10.2108 -77.1095 1.50859
-9.89303 -77.0894 1.50741
-9.57564 -77.0695 1.50625
-9.25885 -77.0496 1.50512
-8.94623 -77.0621 1.50466
-8.63494 -77.0843 1.5044
-8.3251 -77.1195 1.50442
-8.01814 -77.1823 1.505
-7.71092 -77.2452 1.50561
-7.40346 -77.3081 1.50625
-7.09537 -77.3669 1.50683
-2.25725 -25.7505 0.501338
-5.03006 -60.1622 1.17091
-6.171 -77.5627 1.50908
-5.86357 -77.6452 1.51022
-5.55568 -77.7279 1.51138
-5.24728 -77.8107 1.51257
-4.93607 -77.8572 1.51307
-4.62354 -77.8847 1.51323
-4.311 -77.9132 1.51344
-3.99834 -77.9417 1.51367
-3.68564 -77.9702 1.51392
-3.37279 -77.9987 1.5142
-3.05963 -78.0227 1.51441
-2.74545 -78.0188 1.51411
-2.43135 -78.015 1.51384
-1.63791 -60.3462 1.17084
-1.3915 -60.187 1.16763
-1.1465 -60.0333 1.16455
-0.902949 -59.8914 1.16171
-0.660566 -59.7522 1.15896
-0.41959 -59.6412 1.15676
-0.179512 -59.5308 1.15459
0.059707 -59.4297 1.15263
0.298105 -59.3326 1.15076
0.537871 -59.4677 1.15341
0.777441 -59.5058 1.1542
1.03154 -60.3723 1.17108
1.28393 -60.8279 1.18001
1.54014 -61.287 1.18904
2.28053 -78.2284 1.51788
2.59674 -78.2702 1.51888
2.91342 -78.3146 1.51996
3.23135 -78.3782 1.52143
3.55025 -78.45 1.52309
3.86986 -78.5219 1.52478
4.19018 -78.594 1.52649
4.50963 -78.6381 1.52769
4.82877 -78.6696 1.52866
5.14764 -78.6897 1.52944
5.46529 -78.6883 1.52983
5.78311 -78.6868 1.53024
6.10115 -78.6854 1.53068
6.41838 -78.6717 1.5309
6.73467 -78.6464 1.53093
7.05096 -78.6212 1.53097
7.36436 -78.564 1.53043
7.67725 -78.5048 1.52986
7.98998 -78.4457 1.52932
8.30248 -78.3866 1.52881
8.61475 -78.3275 1.52832
8.92896 -78.2873 1.52822
9.24021 -78.2216 1.52765
6.28635 -51.4402 1.0051
6.47531 -51.274 1.00235
10.159 -77.9212 1.52407
10.4663 -77.8364 1.52322
10.7754 -77.7669 1.5227
11.0842 -77.6973 1.52219
11.397 -77.6555 1.52226
11.7097 -77.6132 1.52234
12.0224 -77.571 1.52245
12.3353 -77.5288 1.52258
12.6481 -77.4866 1.52274
12.9611 -77.4444 1.52292
13.2775 -77.4222 1.52352
13.601 -77.4388 1.52491
13.9273 -77.467 1.52656
14.2542 -77.4955 1.52824
14.5819 -77.524 1.52994
14.9103 -77.5526 1.53168
15.2394 -77.5809 1.53344
14.2351 -70.9591 1.40366
15.9222 -77.7466 1.53919
16.2721 -77.8616 1.54275
16.6322 -78.017 1.54714
16.9915 -78.1605 1.55133
17.3344 -78.2216 1.55392
17.6983 -78.3709 1.55828
18.0642 -78.5209 1.56269
18.4323 -78.672 1.56716
18.7891 -78.7678 1.57056
19.1465 -78.8602 1.57393
19.5189 -79.0072 1.57842
19.9 -79.1817 1.58349
20.2935 -79.3957 1.58938
18.5129 -71.2347 1.42748
21.0933 -79.8436 1.60169
21.5321 -80.1974 1.61051
22.0008 -80.6473 1.62131
22.4537 -81.0233 1.63067
22.8728 -81.2647 1.63737
23.2953 -81.5082 1.64415
23.8576 -82.2232 1.66049
24.4568 -83.0396 1.67895
24.8599 -83.1733 1.68366
25.2383 -83.2184 1.6866
25.5858 -83.1589 1.68747
25.9336 -83.0994 1.68837
26.2829 -83.0435 1.68936
26.6396 -83.009 1.69083
26.9969 -82.9745 1.69232
27.3651 -82.9708 1.69448
27.7797 -83.1032 1.69945
28.1898 -83.2163 1.70406
28.6023 -83.33 1.70873
29.017 -83.4443 1.71345
29.434 -83.5593 1.71823
6.24428 -8.45434 0.203846
6.25113 -8.39285 0.202968
6.28936 -8.37369 0.203114
54.9631 -62.0888 1.60824
73.7923 -56.9475 1.80782
72.9714 -47.9007 1.69295
73.3852 -47.7514 1.69808
73.7004 -47.5359 1.70094
73.1413 -46.7599 1.68368
86.2253 -50.3616 1.93667
86.2278 -49.8993 1.9322
86.3608 -49.5139 1.9307
86.4848 -49.1241 1.92905
86.485 -48.6654 1.92468
85.4366 -47.6242 1.89707
85.4301 -47.1715 1.8927
85.4236 -46.7209 1.88839
85.4173 -46.2722 1.88412
85.9657 -46.1233 1.89211
86.4862 -45.9558 1.89948
86.4864 -45.511 1.89545
86.4866 -45.0681 1.89147
86.2735 -44.517 1.88288
86.2737 -44.0788 1.87901
86.2739 -43.6425 1.87517
86.2741 -43.2079 1.87139
83.6706 -41.4841 1.81128
83.3855 -40.926 1.80153
83.3521 -40.4946 1.79728
83.4644 -40.1352 1.79621
83.6336 -39.8035 1.79639
83.8381 -39.4882 1.79736
84.192 -39.2421 1.80155
84.8208 -39.1209 1.81163
84.867 -38.7293 1.80927
84.8671 -38.3179 1.806
84.8296 -37.8912 1.80192
84.8295 -37.4828 1.79871
84.8295 -37.0759 1.79553
84.8679 -36.6871 1.79325
84.8294 -36.2664 1.7893
84.8294 -35.8637 1.78624
84.8294 -35.4625 1.78323
84.8686 -35.0788 1.78107
63.1896 -25.8212 1.3241
83.8017 -33.8515 1.75291
83.5209 -33.3482 1.74422
83.3573 -32.895 1.73803
83.379 -32.5168 1.73574
83.5271 -32.1883 1.73612
83.6492 -31.8497 1.73598
83.9287 -31.5704 1.73913
84.339 -31.3384 1.74501
84.1739 -30.8925 1.73901
84.467 -30.6153 1.74251
84.4672 -30.2318 1.73999
72.9264 -25.7709 1.50011
73.4562 -25.6265 1.50888
73.1654 -25.1955 1.50081
73.7025 -25.0496 1.50975
73.3065 -24.5867 1.4996
73.8702 -24.4458 1.50912
74.119 -24.198 1.51219
84.1756 -27.1074 1.71514
84.1758 -26.7344 1.71294
84.176 -26.3624 1.71077
84.1761 -25.9914 1.70863
84.1763 -25.6212 1.70653
84.1764 -25.252 1.70446
84.1766 -24.8837 1.70243
84.1768 -24.5162 1.70042
84.1769 -24.1495 1.69845
84.1771 -23.7838 1.69651
84.1772 -23.4188 1.69461
84.1774 -23.0547 1.69273
84.1776 -22.6914 1.69088
84.1677 -22.3262 1.68887
84.1679 -21.9645 1.68709
84.168 -21.6035 1.68534
84.1682 -21.2433 1.68362
84.1684 -20.8837 1.68193
84.1686 -20.525 1.68027
84.1687 -20.1669 1.67864
84.1688 -19.8095 1.67704
84.169 -19.4528 1.67547
84.1692 -19.0967 1.67393
84.1693 -18.7413 1.67243
84.1695 -18.3865 1.67095
84.1697 -18.0323 1.6695
84.1698 -17.6787 1.66808
84.17 -17.3258 1.66669
84.1702 -16.9734 1.66533
84.1703 -16.6216 1.66399
84.1704 -16.2704 1.66269
84.1706 -15.9196 1.66141
84.1708 -15.5695 1.66017
84.1709 -15.2198 1.65895
84.1711 -14.8707 1.65776
73.6168 -12.701 1.44888
73.4191 -12.3632 1.444
73.1778 -12.0202 1.43829
78.6117 -12.5886 1.54408
78.729 -12.283 1.54541
78.7292 -11.959 1.54445
78.7176 -11.6337 1.5433
78.8712 -11.3326 1.5454
79.2494 -11.062 1.55193
79.5112 -10.7729 1.55619
80.0797 -10.5222 1.56648
80.0799 -10.1949 1.56567
80.08 -9.86799 1.5649
80.1365 -9.54807 1.56523
80.1506 -9.22312 1.56477
80.1368 -8.89527 1.56378
80.0415 -8.55912 1.56124
80.0807 -8.23783 1.56134
80.0384 -7.9085 1.55988
80.1513 -7.59441 1.56148
80.1515 -7.26943 1.5609
80.1377 -6.9435 1.56008
80.0814 -6.61439 1.55845
80.0816 -6.29037 1.55795
79.7903 -5.9449 1.55181
79.4951 -5.60166 1.54562
78.8784 -5.23963 1.5332
78.7265 -4.91172 1.52986
78.7325 -4.59447 1.5296
78.7326 -4.27695 1.52926
78.6142 -3.95363 1.52664
78.8014 -3.64553 1.52997
79.1638 -3.34344 1.53674
79.5645 -3.03998 1.54426
79.7918 -2.7275 1.54845
79.7919 -2.40641 1.54825
79.5226 -2.07836 1.54285
79.1958 -1.75127 1.53636
78.7896 -1.42543 1.52836
78.6272 -1.10631 1.52511
78.6742 -0.790664 1.52595
78.6743 -0.474375 1.5259
78.5671 -0.15791 1.5238
78.7834 0.158359 1.52799
79.2066 0.477637 1.53623
79.4737 0.798711 1.54146
79.7935 1.12275 1.54773
80.025 1.44779 1.55232
80.0252 1.76963 1.55245
80.0817 2.09299 1.5537
80.0899 2.41543 1.55403
80.082 2.73744 1.55408
79.9898 3.05629 1.55252
80.0259 3.3799 1.55347
80.0824 3.70482 1.55484
80.0965 4.0282 1.55542
80.0967 4.35109 1.55575
79.9846 4.66754 1.55393
79.7952 4.97842 1.55062
79.7954 5.30055 1.55103
79.7955 5.62281 1.55146
79.4841 5.92211 1.54585
79.0852 6.21221 1.53857
78.7429 6.50387 1.5324
78.5589 6.80676 1.52934
78.6777 7.1358 1.5322
78.6779 7.45482 1.53278
78.6771 7.774 1.53336
78.8093 8.10709 1.53656
63.2812 6.76687 1.23433
79.797 8.85758 1.55716
79.7971 9.1825 1.55786
79.5115 9.47365 1.55302
78.9534 9.72918 1.54286
78.8213 10.0348 1.54106
78.6469 10.334 1.53845
78.7693 10.6724 1.54167
78.7695 10.995 1.54253
78.7902 11.321 1.54381
78.931 11.6653 1.5475
79.5677 12.0864 1.56092
80.12 12.5 1.57271
80.1201 12.8302 1.57371
80.083 13.1546 1.57402
80.1768 13.5012 1.57691
80.1909 13.8354 1.57827
80.1771 14.1651 1.5791
80.1209 14.4876 1.57913
80.121 14.8204 1.5803
80.1775 15.1645 1.5826
80.1917 15.5013 1.58409
80.1778 15.8333 1.58507
80.1216 16.1571 1.58522
80.1218 16.4925 1.58653
80.1219 16.8286 1.58786
79.8066 17.0977 1.58298
79.4459 17.3547 1.57717
78.9399 17.5769 1.56852
78.8162 17.8822 1.56748
78.6485 18.1769 1.56558
78.7464 18.5333 1.56902
78.773 18.8741 1.57103
78.8301 19.2232 1.5737
79.3194 19.6806 1.58508
73.8197 21.1783 1.48948
73.7767 21.4873 1.49034
73.4434 21.7109 1.48535
73.3511 22.0046 1.48526
73.1803 22.2744 1.48361
73.479 22.6885 1.4915
73.2936 22.9543 1.4896
87.3674 37.7676 1.84602
86.3568 37.7436 1.82786
85.4203 37.744 1.81124
88.304 40.2979 1.88255
87.3733 40.2982 1.86614
86.4585 40.2987 1.85005
85.5594 40.299 1.83426
84.6756 40.2994 1.81877
83.8064 40.2998 1.80357
82.9517 40.3002 1.78865
82.111 40.3005 1.774
82.046 40.6787 1.77611
82.0462 41.0905 1.77968
82.0464 41.5039 1.78329
82.0465 41.9191 1.78692
82.0467 42.336 1.79064
82.0469 42.7546 1.79438
82.0471 43.1749 1.79816
82.0473 43.5971 1.80199
82.0474 44.0211 1.80586
82.0476 44.4469 1.80979
82.0478 44.8746 1.81376
82.048 45.3041 1.81777
82.0482 45.7355 1.82183
82.0483 46.1689 1.82595
82.0485 46.6043 1.83011
82.0487 47.0416 1.83431
82.0489 47.4811 1.83857
82.0491 47.9224 1.84288
82.0493 48.366 1.84724
82.0495 48.8116 1.85164
82.0497 49.2594 1.8561
82.0499 49.7093 1.86061
82.0501 50.1614 1.86517
82.0503 50.6157 1.86978
82.0505 51.0724 1.87445
82.0506 51.5313 1.87917
82.0508 51.9925 1.88395
82.0511 52.4561 1.88878
82.0513 52.9221 1.89367
82.0515 53.3905 1.89861
82.0517 53.8614 1.90361
82.0519 54.3347 1.90867
63.3835 42.34 1.47836
82.0523 55.2891 1.91895
81.4707 55.3747 1.91054
81.0066 55.5367 1.90488
80.6752 55.7875 1.90235
80.4352 56.1009 1.90199
80.2823 56.4752 1.90372
79.3877 56.3242 1.88784
79.3849 56.8035 1.89321
51.7871 42.343 1.2974
51.7002 42.6198 1.2995
51.6983 42.9685 1.30379
48.9049 42.3373 1.25455
48.9036 42.6813 1.25891
48.9016 43.0271 1.2633
45.0997 42.6734 1.2042
44.719 42.6552 1.1986
44.3419 42.6371 1.19308
43.9682 42.6193 1.18762
43.598 42.6017 1.18224
43.2312 42.5843 1.17692
42.8676 42.5672 1.17168
42.4624 42.5052 1.16526
42.1504 42.5334 1.16138
41.7965 42.5168 1.15633
41.4457 42.5004 1.15134
41.098 42.4842 1.14642
40.7612 42.4763 1.14178
40.429 42.4706 1.13725
40.0995 42.465 1.13277
39.6871 42.3682 1.12592
39.4482 42.4539 1.12398
39.1264 42.4485 1.11966
38.8071 42.4432 1.1154
38.4902 42.438 1.11119
38.1758 42.4329 1.10702
37.8638 42.4278 1.10291
37.5541 42.4228 1.09885
37.2467 42.4179 1.09484
36.9152 42.3829 1.09009
36.5548 42.3114 1.08446
36.2537 42.3054 1.08057
35.9547 42.2995 1.07671
35.6579 42.2936 1.07291
35.3631 42.2878 1.06915
35.0704 42.2821 1.06543
34.7798 42.2764 1.06175
34.4912 42.2708 1.05812
34.2046 42.2653 1.05453
33.9199 42.2598 1.05099
33.6372 42.2544 1.04748
33.3563 42.249 1.04401
33.0774 42.2437 1.04059
32.8002 42.2385 1.0372
32.5249 42.2333 1.03386
32.2513 42.2282 1.03055
31.9795 42.2231 1.02728
31.7095 42.2181 1.02405
31.4411 42.2131 1.02085
31.1745 42.2082 1.0177
30.9094 42.2033 1.01457
30.646 42.1985 1.01149
30.3843 42.1937 1.00844
30.1245 42.1898 1.00544
29.8669 42.1864 1.00249
29.6107 42.1832 0.999578
29.3561 42.1799 0.996697
29.1028 42.1767 0.993848
28.8511 42.1735 0.991032
28.6008 42.1704 0.988249
28.3518 42.1673 0.985497
28.1043 42.1642 0.982778
27.8582 42.1612 0.980089
27.6134 42.1582 0.977431
27.3699 42.1553 0.974804
27.1278 42.1523 0.972207
26.8869 42.1495 0.969639
26.6634 42.1721 0.967686
26.5013 42.2911 0.967963
26.5048 42.6769 0.974349
26.5099 43.0705 0.980897
6.26459 24.1051 0.483044
6.32459 59.7127 1.16465
6.38479 91.9268 1.78704
-2.32342 74.5521 1.44662
-2.34422 42.3662 0.822942
-7.07125 70.837 1.3807
-9.78145 63.96 1.25492
-10.065 64.0887 1.25823
-10.335 64.1254 1.25976
-10.5914 64.0751 1.25959
-10.9018 64.3444 1.26574
-11.1518 64.2506 1.26477
-16.4305 92.4566 1.82127
-16.8146 92.4591 1.82264
-17.1994 92.4617 1.82404
-17.5847 92.4643 1.82547
-17.9707 92.467 1.82693
-18.3572 92.4697 1.82843
-18.7445 92.4725 1.82996
-13.2229 63.912 1.26581
-13.563 64.2532 1.27364
-13.8975 64.5523 1.28067
-14.0193 63.8689 1.26821
-14.3866 64.3069 1.27805
-21.0825 92.4904 1.83985
-14.8346 63.894 1.27217
-15.1733 64.1804 1.27908
-15.4845 64.3407 1.2835
-15.7107 64.1455 1.28086
-15.9214 63.8932 1.27709
-16.3325 64.4381 1.28928
-19.7167 76.4975 1.53214
-20.0444 76.4949 1.53369
-20.3532 76.4194 1.53381
-20.3537 75.2044 1.51105
-20.3543 74.0251 1.48899
-20.4622 73.2643 1.47533
-20.7817 73.2701 1.47712
-21.1018 73.2752 1.47891
-21.4212 73.2753 1.48064
-19.2466 64.8673 1.3123
-19.5203 64.8331 1.31318
-19.692 64.4632 1.30728
-19.9283 64.3105 1.3058
-20.317 64.6446 1.31423
-20.3912 63.9803 1.30238
-23.6788 73.2763 1.49354
-2.21109 6.74951 0.137751
-2.23006 6.716 0.137249
-2.25641 6.70508 0.13721
-2.28781 6.7091 0.137479
-22.0714 63.8841 1.31089
-22.2132 63.4669 1.30415
-22.7804 64.2579 1.32227
-26.31 73.2775 1.51003
-26.6438 73.2793 1.51227
-26.9782 73.2805 1.51452
-18.436 48.8619 1.01288
-18.5476 46.3173 0.967663
-18.6677 46.0795 0.964254
-18.3481 44.2646 0.929334
-18.4596 44.0323 0.926008
-18.5703 43.8018 0.922722
-14.4942 33.8086 0.71343
-14.5987 33.6779 0.711905
-14.7588 33.6757 0.713107
-18.093 40.8361 0.866266
-18.0932 40.3972 0.858494
-15.9991 35.3403 0.752386
-14.4918 31.6714 0.675511
-14.5938 31.5582 0.674343
-14.7449 31.5514 0.675458
-18.0941 38.3159 0.821821
-18.0943 37.9207 0.814903
-18.0945 37.5321 0.808105
-17.4359 35.7976 0.772264
-17.5619 35.6911 0.771484
-18.0286 36.2708 0.785644
-18.0288 35.9082 0.77925
-18.0289 35.5514 0.773114
-18.0291 35.2002 0.767045
-18.0292 34.8545 0.76108
-18.0295 34.5141 0.755231
-16.0066 30.3439 0.665376
-16.1117 30.2478 0.664683
-16.2795 30.2691 0.666584
-18.0704 33.2774 0.734428
-18.0705 32.961 0.729046
-18.0706 32.6492 0.723745
-18.0708 32.3419 0.718542
-18.0305 31.9675 0.711829
-18.0307 31.6695 0.70679
-18.0308 31.3757 0.701851
-18.0309 31.086 0.696988
-17.4415 29.7931 0.669567
-17.5546 29.7118 0.669321
-17.7384 29.7492 0.671763
-18.0315 29.9661 0.678291
-18.0316 29.6954 0.673805
-18.0636 29.4804 0.670656
-18.0982 29.2719 0.667473
-18.0983 29.0107 0.663172
-18.0984 28.7529 0.658935
-18.0985 28.4983 0.654762
-18.0986 28.2469 0.650651
-18.0987 27.9987 0.646607
-18.0988 27.7535 0.642616
-18.0989 27.5113 0.63869
-18.0327 27.1721 0.632453
-18.0991 27.0357 0.631004
-18.0992 26.8021 0.627242
-18.0993 26.5714 0.623543
-18.0994 26.3433 0.619891
-18.0995 26.1179 0.616298
-18.0996 25.895 0.612752
-18.0997 25.6747 0.609255
-18.0999 25.457 0.605811
-18.0999 25.2416 0.602413
-18.0791 24.9998 0.598368
-18.2326 24.9998 0.600119
-18.3871 24.9999 0.60189
-18.5425 25 0.603681
-18.6988 25.0001 0.605493
-18.856 25.0001 0.607326
-19.0142 25.0002 0.60918
-19.1734 25.0003 0.611055
-19.3336 25.0004 0.612951
-19.4947 25.0004 0.614869
-19.4955 24.7951 0.611743
-19.4956 24.5912 0.60864
-19.4956 24.3892 0.605576
-19.4957 24.1893 0.602554
-19.4958 23.9914 0.599571
-19.4959 23.7954 0.596627
-19.496 23.6013 0.593721
-19.4961 23.4091 0.590853
-19.6379 23.3876 0.592292
-19.7988 23.3877 0.59431
-19.9608 23.3877 0.596342
-20.124 23.3878 0.598413
-20.2651 23.3612 0.599828
-20.4303 23.3612 0.60191
-20.5967 23.3613 0.60404
-20.7643 23.3614 0.606196
-20.933 23.3615 0.608376
-21.103 23.3616 0.610583
-21.2743 23.3616 0.612815
-21.4468 23.3617 0.615074
-21.6205 23.3618 0.617359
-21.8205 23.3886 0.62038
-21.9971 23.3886 0.62272
-22.175 23.3887 0.625091
-22.3543 23.3888 0.62749
-32.3279 33.5529 0.903658
-32.2663 33.2206 0.898196
-31.5098 32.1819 0.873526
-16.4799 16.6966 0.455
-16.48 16.563 0.45316
-16.48 16.4304 0.451342
-16.4801 16.2989 0.449546
-16.4801 16.1683 0.44777
-16.4802 16.0389 0.446015
-16.4802 15.9105 0.444284
-16.4803 15.783 0.442567
-16.4803 15.6565 0.440877
-16.4804 15.531 0.439203
-16.4804 15.4064 0.43755
-16.4805 15.2828 0.435917
-16.4806 15.1601 0.434303
-16.4806 15.0383 0.432706
-16.4807 14.9174 0.431129
-16.4807 14.7973 0.429574
-16.4807 14.6782 0.428033
-16.4808 14.5598 0.426511
-16.4809 14.4423 0.425007
-16.4809 14.3256 0.42352
-15.0019 12.9346 0.384173
-16.481 14.0947 0.420596
-16.4811 13.9804 0.419158
-16.4811 13.8669 0.417738
-16.4812 13.7542 0.416336
-16.4812 13.6422 0.414949
-16.4813 13.531 0.413577
-16.4813 13.4205 0.412222
-16.4814 13.3107 0.410881
-16.4814 13.2016 0.409556
-16.4815 13.0932 0.408246
-16.4815 12.9855 0.406951
-16.4174 12.8284 0.404078
-16.4371 12.7377 0.403312
-16.4241 12.6223 0.401747
-16.3994 12.4988 0.399908
-16.3771 12.378 0.398148
-16.3771 12.2749 0.396946
-16.3772 12.1725 0.395757
-16.3773 12.0706 0.394582
-16.3773 11.9693 0.393423
-15.0029 10.8726 0.359353
-15.0459 10.8118 0.359341
-16.3774 11.6691 0.390017
-16.3775 11.5701 0.388907
-16.3775 11.4717 0.387808
-16.3924 11.3842 0.387073
-16.4084 11.2978 0.386377
-16.4243 11.2117 0.385692
-16.44 11.1259 0.385002
-16.4182 11.0151 0.383453
-16.4824 10.9623 0.383919
-16.4824 10.8671 0.3829
-16.4825 10.7723 0.381892
-16.4826 10.678 0.380895
-16.4826 10.5842 0.37991
-16.4826 10.4909 0.378934
-16.4827 10.398 0.377973
-16.4827 10.3057 0.37702
-16.4827 10.2137 0.37608
-16.4828 10.1223 0.375149
-16.4828 10.0313 0.374229
-16.4829 9.94074 0.37332
-16.4829 9.85064 0.37242
-16.4829 9.76094 0.371532
-16.483 9.6717 0.370654
-16.4831 9.58285 0.369785
-16.4831 9.49439 0.368927
-16.4831 9.40639 0.368078
-16.4832 9.31877 0.36724
-16.4832 9.23156 0.366411
-16.4832 9.14471 0.365591
-16.4832 9.0583 0.364782
-16.4833 8.97223 0.363981
-16.4834 8.88654 0.363189
-16.4834 8.80123 0.362408
-16.4834 8.71629 0.361636
-16.4835 8.63168 0.360872
-16.4835 8.54742 0.360119
-16.4835 8.46355 0.359373
-16.4835 8.38002 0.358636
-16.4836 8.29682 0.357909
-16.4837 8.21396 0.357189
-16.4837 8.13141 0.356479
-16.4837 8.04922 0.355778
-16.4838 7.9673 0.355084
-16.4838 7.88576 0.3544
-16.4838 7.80449 0.353723
-16.4838 7.72355 0.353054
-16.4839 7.64289 0.352394
-16.4839 7.56256 0.351742
-16.484 7.4825 0.351098
-16.484 7.40275 0.350462
-16.484 7.3233 0.349834
-16.4841 7.2441 0.349214
-16.4903 7.16791 0.348737
-16.6812 7.17125 0.352157
-16.8725 7.1733 0.355585
-17.0629 7.17338 0.358991
-17.257 7.17348 0.36246
-17.4548 7.17355 0.366007
-17.6566 7.17365 0.36963
-17.8624 7.17375 0.373332
-18.0723 7.17383 0.377114
-18.2866 7.17394 0.380981
-18.5054 7.17402 0.384933
-18.7286 7.17414 0.388975
-18.9567 7.17422 0.393105
-19.1896 7.17434 0.397334
-19.4277 7.17443 0.401662
-19.6709 7.17455 0.406092
-19.9196 7.17465 0.410628
-20.1739 7.17477 0.415276
-20.4341 7.17488 0.420035
-20.7002 7.175 0.42491
-20.9726 7.17512 0.429906
-21.2516 7.17525 0.435029
-21.5372 7.17539 0.440282
-21.8298 7.17551 0.445671
-22.1298 7.17564 0.451201
-22.4372 7.17578 0.456878
-22.7574 7.17746 0.462806
-23.0903 7.18055 0.468986
-86.995 26.6703 1.76476
-86.9951 26.2883 1.76261
-86.9953 25.9071 1.76048
-86.9955 25.5269 1.7584
-86.9957 25.1476 1.75634
-86.9958 24.7691 1.75432
-86.996 24.3915 1.75233
-86.9962 24.0148 1.75038
-86.9963 23.6388 1.74846
-86.9965 23.2638 1.74657
-86.9967 22.8895 1.74471
-86.9968 22.516 1.74288
-86.997 22.1433 1.74109
-86.9972 21.7713 1.73933
-86.9974 21.4001 1.73759
-86.9975 21.0296 1.73589
-86.0211 20.428 1.71476
-86.0191 20.0625 1.7131
-86.0171 19.6979 1.71147
-86.0152 19.3338 1.70987
-83.6728 18.4542 1.66182
-83.8454 18.1392 1.66378
-86.0092 18.2457 1.70525
-86.0072 17.8842 1.70377
-86.0053 17.5235 1.70233
-86.0033 17.1633 1.70091
-86.0014 16.8037 1.69952
-85.9998 16.4447 1.69817
-86.0021 16.0871 1.69692
-86.0043 15.7299 1.69571
-86.0066 15.3733 1.69452
-83.6745 14.6096 1.6474
-85.9703 14.6545 1.69143
-86.0134 14.3064 1.69113
-86.0157 13.9516 1.69006
-86.0179 13.5973 1.68901
-59.3143 9.13186 1.16394
-59.4962 8.9152 1.1668
-86.0246 12.537 1.68606
-86.2417 12.2148 1.68933
-86.242 11.8613 1.68839
-86.2421 11.5083 1.68748
-86.2423 11.1557 1.68659
-86.2424 10.8034 1.68573
-86.2425 10.4514 1.68489
-86.2427 10.0998 1.68409
-86.2428 9.74857 1.68331
-82.1746 8.95426 1.60319
-86.2431 9.04695 1.68185
-86.2432 8.6966 1.68115
-86.2433 8.3465 1.68049
-86.2435 7.99676 1.67985
-86.2436 7.64723 1.67924
-86.2437 7.29793 1.67866
-86.2438 6.94885 1.6781
-86.244 6.60012 1.67757
-86.2441 6.25145 1.67708
-86.2442 5.90305 1.6766
-86.2443 5.5548 1.67616
-86.2444 5.20676 1.67574
-88.6102 4.99217 1.7213
-87.8975 -1.06006 0.730589
-87.8394 -1.41256 0.730147
-87.8395 -1.76576 0.730201
-87.8397 -2.11906 0.730267
-87.9711 -2.47613 0.731437
-87.9713 -2.83008 0.731527
-87.9714 -3.18416 0.731629
-87.9716 -3.53832 0.731743
-87.9718 -3.8926 0.731868
-87.9719 -4.24695 0.732006
-87.9721 -4.60156 0.732155
-87.9722 -4.95625 0.732316
-87.9724 -5.31113 0.732489
-87.9726 -5.66611 0.732674
-87.9727 -6.02133 0.732872
-87.9729 -6.37674 0.73308
-87.8417 -6.72238 0.732207
-87.5696 -7.0557 0.730169
-87.8421 -7.43316 0.732684
-87.8422 -7.78902 0.732941
-86.5084 -8.02135 0.722075
-86.5086 -8.37221 0.722351
-86.5087 -8.72342 0.722641
-84.0983 -8.82197 0.702795
-86.7951 -9.45781 0.725643
-51.7878 -5.85391 0.433164
-49.9937 -5.85471 0.418345
-48.3177 -5.85547 0.404518
-47.8714 -5.99674 0.400981
-47.8716 -6.19232 0.401187
-47.8716 -6.38809 0.401399
-47.8717 -6.5841 0.401618
-47.5979 -6.74148 0.399545
-47.8719 -6.9767 0.402077
-48.0032 -7.19301 0.40342
-48.0034 -7.39047 0.403667
-48.0035 -7.58816 0.403921
-48.0035 -7.78609 0.404182
-48.0036 -7.9843 0.40445
-48.0037 -8.18273 0.404725
-48.0038 -8.38148 0.405006
-48.0039 -8.58051 0.405294
-48.004 -8.7798 0.40559
-48.0041 -8.97937 0.405892
-48.0041 -9.17926 0.406202
-48.0042 -9.37949 0.406518
-48.0043 -9.58 0.406842
-48.0044 -9.78086 0.407172
-48.0045 -9.98203 0.40751
-48.0046 -10.1835 0.407855
-48.0047 -10.3854 0.408207
-48.0048 -10.5876 0.408567
-48.0049 -10.7902 0.408934
-48.0049 -10.9931 0.409308
-48.005 -11.1964 0.409689
-48.0051 -11.4001 0.410077
-47.8739 -11.5724 0.409351
-47.874 -11.7763 0.409753
-47.6002 -11.9121 0.407816
-47.8742 -12.1854 0.41058
-47.8743 -12.3905 0.411004
-47.8744 -12.5961 0.411437
-47.3262 -12.6555 0.40718
-46.6452 -12.6746 0.401746
-46.5406 -12.8473 0.401277
-45.7609 -12.8302 0.394995
-46.5408 -13.2509 0.402185
-46.5409 -13.4534 0.402648
-46.6305 -13.6827 0.403883
-46.8272 -13.9451 0.406082
-46.8272 -14.1503 0.406573
-46.8273 -14.356 0.407071
-46.8274 -14.5622 0.407578
-46.6097 -14.7003 0.406191
-46.5487 -14.887 0.406181
-46.5416 -15.0913 0.406644
-45.7255 -15.03 0.400038
-46.5418 -15.5059 0.407722
-46.5418 -15.7141 0.408273
-34.0467 -11.6479 0.299072
-33.8845 -11.7448 0.29806
-33.8538 -11.8868 0.298208
-46.6302 -16.5838 0.411298
-46.6606 -16.8062 0.412191
-46.6607 -17.0185 0.412794
-46.6607 -17.2313 0.413405
-46.6609 -17.4449 0.414021
-46.661 -17.659 0.414651
-46.6611 -17.8738 0.415291
-46.6612 -18.0893 0.415933
-46.543 -18.2591 0.415532
-46.5431 -18.4753 0.416192
-46.5432 -18.6923 0.416861
-46.5433 -18.91 0.41754
-46.5434 -19.1283 0.418227
-46.5435 -19.3475 0.418924
-46.5436 -19.5673 0.419629
-46.5437 -19.7879 0.420344
-45.7277 -19.6584 0.413685
-46.83 -20.3557 0.424394
-46.8301 -20.5799 0.425138
-46.8302 -20.805 0.425899
-46.6756 -20.9614 0.425254
-46.6358 -21.1692 0.425659
-46.5444 -21.3538 0.42561
-46.5445 -21.5807 0.426401
-46.5446 -21.8086 0.427207
-46.6389 -22.0818 0.428878
-45.7288 -21.8764 0.421313
-49.7789 -29.4783 0.480833
-49.3259 -29.4785 0.477593
-48.8789 -29.4787 0.474416
-48.4379 -29.4789 0.471278
-48.0027 -29.4791 0.468195
-47.5731 -29.4793 0.465157
-47.1489 -29.4795 0.462165
-46.7303 -29.4797 0.459212
-46.402 -29.534 0.457142
-39.8931 -25.6171 0.394035
-46.3945 -30.0561 0.459442
-46.3946 -30.3216 0.460644
-46.3947 -30.5886 0.461862
-46.3948 -30.8569 0.463097
-46.395 -31.1268 0.464343
-46.3951 -31.398 0.465602
-46.4029 -31.676 0.466959
-46.403 -31.9503 0.468242
-46.5496 -32.3279 0.471033
-46.5497 -32.6061 0.472357
-39.7053 -28.0505 0.404043
-45.4001 -32.348 0.463312
-46.5501 -33.4504 0.476417
-46.5502 -33.735 0.477804
-46.5504 -34.0213 0.479204
-46.5505 -34.3093 0.480619
-46.5506 -34.5991 0.482054
-46.5508 -34.8905 0.483505
-46.5509 -35.1838 0.484972
-46.551 -35.4788 0.486454
-46.5511 -35.7757 0.487955
-46.5513 -36.0743 0.489472
-46.5514 -36.3749 0.491008
-46.5515 -36.6773 0.49256
-46.5517 -36.9817 0.49413
-39.7169 -31.8133 0.422937
-46.5519 -37.5964 0.497326
-46.4235 -37.802 0.497573
-45.4712 -37.3316 0.488971
-45.4024 -37.5816 0.489852
-46.4001 -38.7229 0.502292
-46.4009 -39.041 0.503995
-46.4017 -39.3614 0.505718
-46.4025 -39.6838 0.507461
-46.4032 -40.0086 0.509225
-46.4117 -40.3423 0.51109
-49.9216 -43.7468 0.551678
-49.9218 -44.103 0.553634
-49.922 -44.4617 0.555614
-49.9221 -44.823 0.557634
-49.9223 -45.187 0.559642
-49.9224 -45.5535 0.561692
-49.9226 -45.9228 0.563769
-49.9228 -46.2949 0.565863
